# 3D point list with one line of data per point:
#   POINT3D_ID, X, Y, Z, R, G, B, ERROR, TRACK[] as (IMAGE_ID, POINT2D_IDX)
# Number of points: 394, mean track length: 3.9621806689491703
4915 6.0728366905422382 5.0447197807711381 6.0872952089007555 138 124 100 0.53521018149373045 6 2781 5 1525
25667 0.99698639783144782 -3.564385519886299 8.022236957422999 207 186 141 2.1820819149560173 53 1893 51 1891 50 2315 65 1827 58 2098 77 1728
4914 5.7899713865840434 5.2776988034555048 6.6519909226864531 162 146 121 0.096619037966517635 6 2938 5 1515
25666 -5.9005241454696806 -12.376708207122215 9.3564324581522964 255 255 255 1.3130634787193245 15 2427 51 1884
4913 5.4997787984876236 5.8169515674402703 7.2525129883136339 133 120 104 0.52758387565834075 6 2939 5 1514
4912 6.4074197708642098 4.1523787355117605 6.0450428503756735 121 104 84 0.28671776790829562 6 2768 42 2631
15185 -1.0877638054378302 -3.8001072922969179 8.5815381045927968 0 0 0 1.3797202393425434 9 1875 39 2811
4911 6.2708700924130154 3.5986350527296977 5.4875982340181428 168 150 126 0.45571663674770113 6 2935 5 1501
15184 0.94545813723955441 -3.9381650884103996 7.895392792359667 19 27 30 1.2563936306116741 28 1957 45 2310 17 2288 97 1995 78 2209
25663 -1.731087590488128 -4.1873509128983049 6.5582169007687883 0 0 0 0.74633671817140257 52 2555 63 1895
4910 6.3335439047855306 3.3200769427827117 5.3192607075261256 147 129 107 1.2501752410839004 6 2933 5 1499
15183 -1.0766601982070805 -5.5615714429515739 4.9319228851520904 0 0 0 1.9306570960450562 14 3159 96 2801 95 2105 17 2276
25662 -1.5214480924004727 -4.6283839947616352 6.3758586510822131 127 89 78 0.90679814329809438 54 2187 51 1869 50 2244 49 1881
4909 6.0673672431698442 3.6359969087039934 5.8147262282251875 175 160 139 0.8710905106434208 6 2763 5 1497
4908 6.0673672431698442 3.6359969087039934 5.8147262282251875 175 160 139 0.8710905106434208 6 2762 5 1496
15181 3.2021836899772325 -1.3561493597823255 6.8135380701257624 62 38 20 1.8460181256864929 11 2598 79 2299 95 1932 96 2581 34 2409 18 2152
25660 -1.7160180306977946 -4.6870188290269805 5.7448142816738503 0 0 0 1.1637381313473165 53 1974 54 2183 63 1883
4907 6.2074671404389576 3.2270598858118005 5.6214905746862804 119 101 79 1.177370403327137 6 2930 5 1487
25658 -0.19577943521252109 -7.3086409156920356 5.5800313332297975 142 130 116 1.4023685503636649 15 2421 16 2593 53 1954 51 1840 49 2564
4905 6.0780940379529849 3.2021462451767411 6.1910524151817032 128 111 91 1.6869696628593807 5 1482 42 2622
25657 -0.21206531402079939 -7.2713101941520035 5.5644176501325742 0 0 0 1.3809649258659649 44 2686 45 2253 53 1953
4904 5.1857101341443625 4.6381409425600397 8.2072030168194434 148 133 108 1.1105687342483566 6 2754 5 1481 42 2621 3 1213
15177 0.60431386062691561 -3.8673941545511501 7.6425344467362537 0 0 0 1.6530683245894828 45 2268 81 1878 17 2236
4903 5.097413419777002 4.3746970773084728 8.3914536444634269 165 149 126 1.4559409065675284 6 2920 5 1478 42 2618 4 2262 3 1202 1 2108
4902 5.0659461203171308 4.2788211223600303 8.4213584119139995 162 146 123 1.1611558034896561 6 2919 5 1477 42 2617 3 1199 1 2107
25654 -0.44135000144660363 -7.585142129991036 3.6440990366633734 0 0 0 1.8037716636744396 52 2387 55 1564
4901 2.6391149797985363 3.5636668368392246 8.9257984912723174 32 34 33 1.8527891857081453 6 2732 5 1466 39 2420 31 1297 30 2250
25652 0.83565564286545624 -6.9110497247229112 2.714073370493145 14 16 15 2.480281279809962 12 2123 51 1807
4899 3.0509026645643664 2.7603257728806438 8.5088186940024251 26 26 26 1.7904167096443027 6 2720 5 1458 39 2548 42 2481 1 2074 5 1098 48 2849 99 1949 19 2303
25651 6.8929751877764396 -4.7779132890974454 3.8477915170412222 196 182 156 1.9985259420379908 37 3036 63 1718 61 2177
4898 5.1157316588464639 1.2265128547362989 8.3986579493480491 122 106 81 0.86141763687893003 6 2885 5 1428 22 1944
4896 4.8754931607544023 1.1222310854922073 8.7900035636860139 164 144 107 1.2802538877602041 38 2111 5 1421 39 2640 8 3072
15169 1.0823952060346229 -3.6827608312340203 8.1821173740551583 212 195 151 1.4772856041191522 15 2457 45 2227 16 2621 96 2557
15168 1.1721858858772787 -3.5340450986407372 7.5287317471845965 215 196 154 1.2038278130594724 15 2516 43 2982 16 2620 17 2184 97 1875
4886 5.7789351913628719 -0.70089617371384783 6.6668913932194487 151 138 121 2.5504436425067278 6 2654 46 1947 5 1380 47 2967 92 1592 42 2585
4885 6.4617070689084821 -1.3117158536810609 4.8943540949216811 102 86 70 2.0201953111533797 37 3116 5 1379 4 2185 86 2025
15158 5.7523640163879195 -7.4695218700360142 5.6723286496260226 15 15 13 0.83006497153854075 96 2628 16 2582
4884 6.4642315751943009 -1.3091985983712766 4.8931551285041541 102 86 70 0.83474573299013066 5 1378 4 2186 3 1411 1 2012 86 2024
25633 -9.9921204474975109 -19.394491915536456 10.944385114086177 86 99 105 1.6102286423959022 97 1545 51 1691 50 2295
25630 1.4414026905826949 -4.3894537288738205 6.5114336383680342 229 224 218 2.2248480002840587 55 1246 56 1891 49 1861 50 1954 57 1987 62 194 66 1813 77 1703
4875 6.0624434901854549 -3.7478734359850985 6.2074830697735335 124 118 106 0.68696562937838224 5 1301 85 3269
25627 -1.4069840054459593 -5.1554127041627185 5.42326970763673 0 0 0 0.048901499751261998 55 1948 24 2044
4874 0.87093831773558961 -4.0745087164647629 8.0466873441848144 122 119 110 1.3397834219403855 7 2593 8 2720 5 1283
15147 -1.5002663252523527 -4.6760077839513414 5.5727402118804008 62 79 97 1.0652207428296987 12 2567 15 2378 97 1773 18 2200
25626 4.0487538775072531 -2.8273535801694472 6.5131054434287847 167 163 154 1.2990198736035516 53 1541 55 1600 56 1684 57 1752
4873 0.87029453254594591 -4.0789015171048932 8.127021541348153 122 119 110 2.081479374572345 7 2592 8 2719 5 1282 39 2448 9 1581
25625 -1.477530651547815 -5.246729411806232 5.2728859298385711 42 49 59 1.2550922789347829 10 2880 17 2083 51 1607 50 2229 62 1300
4872 1.1988988035505503 -4.1631792514009147 7.2860498158217597 211 203 180 2.2132197349537073 7 2178 8 2319 9 1327 5 1281 6 1413 41 2435
25624 -1.0420678127677194 -5.455197066374085 5.2124340270919411 233 210 176 1.7804835933810903 79 2139 51 1601 50 2225 66 1798 58 1840
4871 -1.476049137038923 -4.0782864487855042 6.4647817466013562 209 185 151 2.2206863768542449 9 1328 5 1278 90 1969 27 1074 40 1516 29 1019
25623 -1.3478792043509287 -5.4638342831086737 5.0552115900032923 34 37 42 1.587631934582288 53 1543 54 1877 63 1751 66 1797 61 2080 58 1839 76 1655 70 1007 71 1309 72 1820
4870 -1.6608309682659004 -4.1151442883533447 6.3201356950305598 218 182 145 1.5059561167842213 6 2794 7 2794 8 2967 9 1578 91 1549 39 2579 28 1352 90 2177 27 1328 78 1869
4869 -8.8930503923398927 -4.0842437631269464 13.114937500776918 130 130 120 0.82588415122017533 6 2526 5 1275 1 1233
25621 -7.5069071037941493 -27.49798194992395 5.7568562751203736 57 62 58 1.2642787134228748 13 2481 54 2042 51 1590
4868 6.1511278037862107 5.2531657034774941 5.9236007651705389 209 186 154 0.56609165260569982 6 2516 5 1227
25620 1.9669816322128413 -7.0642451581478873 5.5132103096614129 9 13 10 1.8061269050677797 54 1855 50 2207 61 1842 59 1644 72 2066 70 983
4867 5.9703979715179951 5.5308462924742718 6.2496333852097612 138 121 101 0.39657997362922703 6 2784 5 1226
4866 6.0802657877105828 5.080216986617125 6.0052737181900921 224 202 168 0.47185926629298702 6 2504 5 1212
4865 6.0802657877105952 5.0802169866171454 6.005273718190117 224 202 168 0.47185926629335284 6 2503 5 1211
25616 1.9305457424107704 -6.8723227955479231 5.0149753807996929 194 186 175 1.2201634375482664 52 1961 63 1445 62 1915
4863 6.0488362134717066 4.9648410081866281 6.1973895002703712 118 102 79 1.5576625944312146 6 2775 5 1201
4862 5.4842399984454717 5.7247077572989271 7.4757395041800088 88 75 59 0.55959753449165983 6 2482 5 1192
4860 6.2429829803102983 4.0470607690342471 5.5647853373334248 147 130 110 0.69199963381556917 6 2771 5 1189
25612 2.5691943718882269 -7.2941461746876675 4.4354673456596387 0 0 0 0.18853328817512235 52 1945 55 1553
4859 5.4383061538202258 5.5718277850411768 7.5887910545429405 74 61 44 1.8140442600350437 6 2465 5 1187 42 2330 21 3264
25611 6.6370277089345544 -6.6802542857542475 4.6961553379128622 0 0 0 2.2541527630330984 45 1893 53 1117
4858 5.7153130136488981 4.7836543962622295 6.7845435090206712 139 122 102 2.738016752878162 5 1186 21 3263
25610 4.3751508848500329 -6.305074679820021 3.5974014997346915 64 61 56 2.3257225807703161 36 2037 55 1114 63 1396 83 1223
4857 5.7153130136488981 4.7836543962622295 6.7845435090206712 139 122 102 2.738016752878162 5 1185 21 3262
25609 3.268002443622386 -9.3576392810189422 2.4885001679458081 107 95 79 2.4203544841678513 53 1471 55 1791 51 1513
4856 6.2596816039561878 4.1001407573499558 6.0272961556340947 185 167 145 2.0738952570855025 42 2529 5 1182
15129 6.6713000225208834 -6.7651576439105332 4.6481386086898899 110 99 79 1.4501389955587183 46 1427 47 2500 16 2479 1 2404 2 2529 52 171 61 414
25608 3.268002443622386 -9.3576392810189422 2.4885001679458081 107 95 79 2.4203544841678513 53 1470 55 1790 51 1512
4855 6.2596816039561878 4.1001407573499558 6.0272961556340947 185 167 145 2.0738952570855025 42 2530 5 1181
15128 6.61268586284777 -7.199906025883541 4.7558908169126726 97 86 66 1.6229337893943829 94 2797 54 1078 55 323 15 2317 68 1203
25605 7.2787783207454346 -7.7475150698916053 3.000834324685842 157 148 139 1.6173753947462104 52 1313 63 1366 72 1410 61 1741
4852 6.2530729846455158 2.9639241677048624 5.5010700262811003 204 184 151 0.20227327883966431 6 2435 5 1159
4850 5.2024543770396585 4.7311504699525342 8.1678577351796591 161 145 120 2.0298179539732546 5 1156 4 1734 3 739 21 3259 6 2431
15123 0.88535975068751904 -2.206697164210897 8.1351449779471761 0 0 0 1.8769193706439087 79 1835 92 385 91 392
25601 -12.380030907617591 -21.608549229696322 17.858152180052148 141 180 187 0.5438941708998758 97 1349 97 1093 50 2098
4848 6.1971334462262879 2.927806725567327 6.0487626619657631 150 133 105 1.8746890786283323 6 2750 5 1152 42 2507
15120 3.1797156642065896 -1.3263898277018589 6.7574147453841942 60 53 37 1.1788261941335187 10 3133 96 2426 34 2312
4845 6.3498705670908748 1.0322145647650436 5.0651786560647567 111 95 79 1.3226453787536327 99 1854 4 1699 1 2095 86 1968
25597 0.93158695229974153 -2.2657262593685381 8.095705151193922 93 124 0 0.99853328110331407 52 2224 51 1445 48 1558
4844 6.3498705670908748 1.0322145647650436 5.0651786560647567 111 95 79 1.3226453787536327 99 1853 4 1700 1 2094 86 1969
4843 3.1058621775316952 3.2073592188743616 8.5158518031370409 68 65 58 1.602689592208717 6 2729 5 1117 39 2553 42 2251 3 1188 1 2087 20 2117
25594 -11.590955973228107 -25.58394473615537 15.539685744611301 0 0 0 1.1412431650485841 35 1645 97 1548 14 2639
4841 3.9241772340399188 2.9129156758277035 8.5240331631850434 59 56 51 2.2944159979409777 6 2386 5 1108 3 643 1 1633 86 1554 87 1976 4 1676
15114 3.5199219116692126 -1.5011354577834191 6.794881834505361 56 49 33 1.5149511999355307 79 1828 16 2429 17 1084 19 1116
25593 4.8239243158882354 -3.76335294920748 9.4939166658112448 65 58 50 2.1141604550190047 43 1496 52 658 44 1659 48 1502
4839 6.4282922469986001 0.67169988277636428 4.8466716799777281 138 121 103 1.641576593396274 6 2378 5 1103 4 1691 1 1657
25591 0.79468944665469865 -4.0246702056288486 7.3449872790358741 96 88 77 1.6682121322874834 53 1274 51 1392 57 1774
4838 3.5979368286901523 2.3060049789636738 7.5384396182548947 0 0 0 0.45308386723670718 6 2381 8 2913 7 2756
25588 -1.6807018321730867 -5.0767909658797441 5.5936918926636148 0 0 0 1.3598051068111723 52 2014 63 1499 55 1631
4835 2.5022811978151518 2.133394545221158 7.5616591121924426 0 0 0 0.25841216029895486 6 2367 8 2903
25587 0.68777571084623446 -5.0240379871866994 5.8701362135523381 68 66 53 0.9599947686899043 52 1477 63 1068 50 1939 49 1430 62 1085
4834 2.5022811978151518 2.133394545221158 7.5616591121924426 0 0 0 0.25841216029895486 6 2366 8 2902
25586 -9.7726421879764249 -38.688161480503688 9.6293023769639543 155 190 183 0.862274440454882 13 2292 94 2634 51 1351
4833 5.6918733709721767 1.3696966579804808 6.8274450372110778 125 111 85 2.2982032788010343 99 2067 5 1087 42 2463 1 1614 86 1542
4830 6.0585497376036797 0.48461774748018599 5.8465477758387303 119 103 87 0.73006152342954289 6 2703 7 2730 5 1076
4829 5.5648536516277591 1.0174217867293565 7.1952993333582649 118 104 85 0.82020238467035433 38 2115 5 1074 3 1165 86 1514
4827 4.5457309235761967 2.0311966713996772 9.654938879286691 51 52 45 1.233839851653272 6 2701 7 2731 5 1072 4 2206
4826 4.6626953562335869 1.8320546195073104 9.5338999021744222 136 121 100 1.894681160979113 6 2695 7 2726 99 1901 5 1066 22 1858 4 2202 21 3087
4825 6.1592558988934956 -0.58576431279777119 5.0902376992780587 0 0 0 1.3672630672227619 37 2976 38 1846
4823 5.1404918685992333 -0.16040688851631457 8.3742293732750426 67 60 49 1.4063737687339042 7 2693 8 2842 5 1018 91 1606 92 1599 4 2159 3 1107 2 2202 1 1988 87 1931
4820 6.4290685632350062 -1.7076489722681574 5.0387697547393646 115 102 85 1.6951227149141215 5 995 4 405 3 508 2 1145 1 1517 55 321 53 267 53 1121 52 207
15092 1.6208046171426795 -6.8286740773239822 5.0623239096835375 26 28 26 1.519648822510975 14 2630 16 2345 98 1615
4818 6.3764674913539041 -1.6966605851812089 5.2120822141257461 137 122 103 2.0050955871824834 37 2924 5 993 4 1549 86 1881
25569 -12.213374583915918 -19.383201585261517 18.138336544501431 150 188 197 0.96806880503428627 10 2285 51 1219
4816 6.2891960455036022 -1.7799019563345546 5.4273245282725959 104 93 75 1.5969224068401766 38 1773 46 1492 47 2556 5 982 4 2143 2 1835 86 1685 55 1141 52 1386 63 1458 56 806 53 1494 57 804
15089 2.3725293535036491 -6.1666518391339418 4.6547172877896301 231 226 212 1.7253675681945166 11 2323 15 2057 24 1576 98 1831 23 2178 26 1722
4814 4.8910175612839675 -1.0324825499552803 9.0862705825325865 40 35 29 1.8770176188003713 6 2624 5 970 91 1399 92 1407 86 909 22 1640 87 1738 7 2678
25566 0.42829564630319 -2.3020318270162567 9.2691654430874095 32 32 30 0.13480889683703906 40 449 51 1208
4813 3.2640733638284001 -0.0012406439764678688 13.519127435499907 80 75 56 1.5746552209451543 6 1618 5 969 30 2087
4811 5.4523646215391635 -1.5073691429815457 7.6180079225357504 86 80 72 2.0568087796772798 47 2636 5 965 91 1380 42 2105 4 2115 86 1673
4809 6.133326784571973 -2.1058247099117837 5.9043487936746208 93 84 75 0.66304980318768225 44 1950 99 1442 56 129
15082 2.9280510295675755 -0.88636004241495214 7.1099089962743154 220 202 154 1.7881724351389841 99 571 16 2259 17 1456
4808 6.5241149037657982 -2.3297722766627271 4.8372894392666499 151 136 117 1.0988291461936901 38 1721 5 947 4 1512
15081 0.8839542305322744 -1.7549764772784835 8.0293719891104747 144 134 98 1.6398032027099358 16 2250 17 1421 31 875 18 1098 17 1119 41 2001
25560 -11.592338758417757 -24.390914752079123 15.912215899489887 180 217 225 1.7977804529697938 12 1959 13 2171 51 1161
4807 5.0726107909008764 -1.5891924114270484 8.5408736544163197 51 46 40 1.4285748346684504 5 943 90 2219 28 1801
4804 4.4658463972953406 -1.3657899946060046 10.066104438682761 94 86 69 1.5698323427604517 38 1810 5 936 6 2225 27 1571 91 1381
15077 0.31328392467381994 -3.1074742629106904 8.5779716185145229 140 133 114 2.1932001885952848 11 2387 16 2215 97 1438 17 1376
4801 4.4899839271342792 -1.4751148297245524 9.919540202426175 91 84 65 1.8707281907169058 5 933 6 2218 38 1802 39 2482 91 1375 90 2221 28 1443 40 1722 27 1564 92 1387
15074 5.1276158218437375 -2.5248067101854628 8.5580976849221848 78 72 48 1.8175860894487379 16 2202 95 1363 96 1470
25550 -1.8098076225096562 -3.9066453910714216 6.4307861657964187 166 145 128 1.628620058058259 53 830 51 1045 49 351 62 445 77 100
4797 5.7124117132678141 -2.2464451737365505 7.0307226353703296 118 107 89 1.4608751000953177 8 2769 5 917 91 1564 92 1351 2 1758 1 1422
4796 5.9430690140906046 -2.3839823247365679 6.4138674746570299 129 116 100 1.2687231050710641 6 2175 7 2243 5 911 3 405 2 964 86 1630 85 3159
25548 -1.4661517740271746 -4.1643586721511792 6.4148020749501757 208 174 134 2.4204639868028854 53 1288 54 1322 51 1009 49 269 50 1540
4795 -3.0897571479645651 -1.2591557306646695 9.5834637598314174 141 134 128 2.1021382387402316 39 2314 90 1799 90 2050
4794 -2.0980936052678345 -1.670124036297336 8.1898477042069668 225 220 188 1.8663507435553419 7 2267 8 2413 40 1573 2 1766 29 1412
25546 -1.5553036348817342 -5.0581828607719554 6.110022021047727 130 121 114 1.4091656138411544 53 557 54 1249 51 980 50 1522 49 191 62 217 61 1625 60 1097
4793 5.8578374537870648 -2.8948648812557849 7.3398080689327765 86 77 68 1.1878682559137457 43 2012 5 890
25543 -9.9515749659999351 -37.485047068728377 11.416841720748197 126 161 155 0.77367139541144692 12 1311 13 1603 51 962
4788 1.3171704701480136 -3.0561582300271297 6.805615079096917 93 86 76 2.2684379661151333 9 1014 5 875 4 2040 3 313
4787 1.3504049470116484 -3.0675580890994572 7.4787496330567951 0 0 0 1.1443069458725166 9 1013 38 1751
25537 -1.3750732255231701 -5.1522486689283236 5.0546663329539507 45 48 55 2.6524106689181424 52 321 55 495 50 1481 49 112 51 941
4784 6.3052118712768017 -3.7847979556792737 5.4354151659150549 96 86 77 2.0524459790314515 9 987 37 2020 36 1324 5 859 81 1197 46 470
15057 1.4422770661556181 -6.9922224402042925 7.1040788976011875 143 135 114 1.3375620721682431 16 2138 13 2410 95 1258
4781 2.2845202513332281 -3.719122762591264 4.6046865376822534 98 95 90 1.4130901540042398 8 2325 91 1295 92 1310 7 2181 2 1694 5 850
25533 5.8776213764917866 -3.1998241092803119 6.4855842492738764 97 82 61 1.7851810637084533 55 414 67 322 68 536
4780 1.1571010298243518 -4.1081613327167545 7.5841993852245384 197 186 166 0.89016452762689902 8 2321 5 842 6 2117
25530 1.8202093554564318 -6.9884642586289267 5.1971205667726865 11 14 12 1.7542562852292811 52 250 63 241 61 1506 59 802 72 1197 70 777
4777 1.3847028884318457 -4.5297860629382063 6.8702578896651794 107 103 91 2.4580844249641181 8 2306 5 834 40 1494
25529 6.2988391184068124 -4.0532316929301402 5.7058590719859401 92 74 52 1.7714337357236516 47 1734 54 562 51 872
4776 1.3673855997414146 -4.4948102413756681 6.666540347042516 107 103 91 1.4632579239296517 7 2169 8 2305 92 222 27 1517 40 1493
15049 4.570302876886128 -5.290077061321564 4.7388121661541991 24 24 22 1.5140680629318561 12 2177 16 2108 13 2365
25527 4.1077805548935578 -5.4730409106686784 4.7129215866955727 0 0 0 1.803090497942236 44 231 54 1104
4774 6.1807899874317043 5.171785223742777 5.8751743731234054 223 115 73 0.74591820878654291 6 2515 5 745
25526 6.6224730870511097 -7.1325127449207368 5.0390089882594511 63 54 47 2.0963889444960295 54 479 49 17 51 830 60 111
4773 6.1807899874317043 5.171785223742777 5.8751743731234054 223 115 73 0.74591820878654291 6 2514 5 744
15046 1.9706537775112232 -7.2988225061289551 5.2146459494372053 45 27 16 1.9645223308241326 14 2616 94 2498 15 2051 98 1597 35 1662
25525 6.6315463642670887 -7.1492447517581965 5.0400448306463685 63 54 47 2.0108110630312632 54 478 49 16 60 110
4772 5.8821786140848866 5.7200215780332089 6.5179384804483531 213 189 155 0.58803114786787714 6 2510 5 736
4771 5.8821786140848866 5.7200215780332089 6.5179384804483531 213 189 155 0.58803114786787714 6 2509 5 735
25523 6.6034669013172369 -7.6988997440719107 4.9233569818686567 56 44 32 1.949447649392182 45 1892 51 826 61 512
4770 6.3040268177785181 4.7032694135106796 5.594452475577544 129 111 89 1.2902716145434012 6 2505 5 722
25522 4.2473887937389625 -7.3792858377486832 4.2673907685132297 0 0 0 1.1944437509620183 55 334 63 1416
4769 6.3040268177785181 4.7032694135106796 5.594452475577544 129 111 89 1.2902716145434012 6 2506 5 721
25521 4.2473887937389625 -7.3792858377486832 4.2673907685132297 0 0 0 1.1944437509620183 55 333 63 1415
4768 6.1302082827201305 4.9304512600986401 5.8879959511099935 195 174 145 0.73594612753967781 6 2501 5 716
4766 6.5161939260922015 3.8036006128391233 5.1081781122898029 128 114 88 1.2245852025746133 6 2485 5 690
15039 4.1533371543023634 -7.2472077715145087 4.129918823806193 0 0 0 1.1705490217604435 36 1142 64 639 16 2055
25518 6.6346261286619086 -3.8814053989459465 4.6791754421480709 73 55 33 1.9794598394247818 63 140 64 1503 61 292
4765 6.4843872690502256 3.6472876764638098 4.9778347526920159 174 156 134 1.8584624797356679 6 2054 5 687
4763 6.1598447972118935 4.2553003080560758 5.7597397680966305 117 99 79 0.034946029274826693 6 2479 5 682
25515 6.7435573360313636 -4.683731709843677 4.2976732132007252 99 81 59 1.7518838288983989 55 281 63 106 51 788 52 153 68 1201
4762 6.3460397724806343 4.3824203723131125 6.1819279831681699 167 150 130 0.55992262644427315 6 2466 42 2331
25514 6.7782971029202237 -4.2130659970403332 4.2587777366499173 82 65 50 1.7012605102337399 44 1831 46 1019 54 361 47 2177 69 1246 61 213
4761 5.5357407493531827 5.607445147347109 7.6028313745751914 161 146 123 1.3919246608734284 5 674 42 2531 6 2467
15034 4.0750405809360197 -1.7544777330645236 11.298161501124451 64 57 39 1.946482030484719 16 2028 91 391 17 1131
25513 6.3821538499912638 -6.2595768090355994 3.8485616533258713 93 77 61 1.8581473381060609 55 272 51 774 54 1047 53 215
4760 6.2424464329816027 4.1787239296156597 6.2443702254309192 167 149 127 0.22467949067332268 6 2462 42 2326
4759 5.3660381494260845 5.3217803172743556 7.876733775798999 97 84 68 0.5821059041008334 6 2460 5 664 42 2323
15032 0.50507513193417719 -2.1918433778174018 8.8673690072804767 0 0 0 1.5687588241899197 96 937 99 481
25511 7.0407085514025649 -9.0501897477142812 3.4922999032489064 105 37 16 0.98882740535191394 94 1996 51 759
4758 6.1483551970558876 3.7932515227939603 6.2635613762975737 183 164 139 2.3206911707850892 6 2451 5 657 42 2314
4756 6.4341712573965921 2.8127686473183169 5.0649637364492524 151 132 115 0.76139015288530332 6 2022 5 649
15029 4.3588509214619169 -2.2494366833251536 10.440395109600921 0 0 0 1.5339144109933907 10 2040 81 1365
25508 7.2915492151686809 -8.512253277898985 3.0135128714820771 97 85 69 1.6970651156376007 51 742 61 179 72 256 71 12
4755 5.2688726052356136 5.0709165932832665 8.0495840737858959 106 93 74 1.5656140546853721 6 2024 5 648 42 2310 21 3148
4754 5.383304854042712 4.7757751114027478 7.7623001781138603 170 154 129 1.0963654493075052 6 2445 5 644 42 2308
25506 7.1227271822851979 -5.5115549917497813 3.3500928759219084 94 78 55 0.52279524804820099 45 1636 51 738
4753 5.383304854042712 4.7757751114027478 7.7623001781138603 170 154 129 1.0963654493075052 6 2444 5 643 42 2307
4751 5.2361460613770152 4.9690319046104463 8.113868356338644 131 118 101 0.85243483153795951 6 2443 5 637 42 1934 21 3143
25503 -13.723249309888514 -23.773969708712816 21.172236150296399 172 210 219 1.2378852348166136 98 1032 51 701
4750 5.9475410943519593 3.4106594840185767 6.2168097834109162 196 180 155 2.6620677759460856 5 633 21 3142
25502 -13.728967338404436 -24.336605639146697 21.623724046766036 234 254 252 1.7531833592720913 12 1634 51 700 50 1237
4749 6.0534634446317233 3.4566942823661346 6.3446692629131309 134 117 97 1.5767111556169782 6 2433 5 631 42 2299
15022 5.0756201217142376 -2.784514040664908 8.74018427696444 59 53 31 1.1382384562631729 96 671 16 1959
4748 5.8044123508752126 3.4551344174486323 6.3613376476029719 140 122 102 0.34317255780226125 6 2003 5 630
15021 -15.336899256016016 -17.903896335640599 25.260609355123833 0 0 0 0.14790502490945212 10 1751 15 1936
4747 6.1825732069603827 2.8878435635470696 5.7063327318594315 126 110 87 0.30701776259846841 6 2430 5 628
15020 0.65613074492270507 -3.9334497794839471 7.5379067309935319 70 66 41 1.7524465718302553 11 1986 15 1932 16 1950 98 1467 97 1178 22 772 56 320 17 176 19 1057
4744 5.7481967100838256 3.487288920485732 6.6968275730826452 184 166 142 2.6681457304237921 6 2427 5 621 42 2294 21 3139
25496 -12.238761224883536 -22.892904334860265 17.982562577150219 206 244 233 0.21505296348517033 35 1423 98 474 50 1194
4743 5.2545582697674291 4.417549536886372 8.0419732840065894 193 177 154 1.3926666469257012 6 1996 5 618 42 1900 4 766
4742 6.3098556091194586 2.1484068741441908 5.3325852204784709 114 101 82 0.21462985410882837 6 1981 5 608
15015 1.3677352239731049 -4.5448009971439918 7.2191725857521192 192 177 148 0.89294412641287013 11 1960 16 1942 97 1133 15 1540
25494 -11.47234654550719 -22.40744586539854 17.053572271105217 163 189 188 0.73953264181684408 16 1253 51 617
4741 6.4162469301045455 1.9127291428692881 5.1204723017177676 115 98 78 0.36344344600280643 6 1976 5 604
15014 1.8906025124100176 -3.2618994875803669 5.3232715539173432 0 0 0 1.0505276835614221 11 1518 46 666
4740 5.4252641914422144 3.5303832896739857 7.6151870094658713 136 121 100 0.87878334576122741 6 2422 5 603 42 1873
25492 -10.989590769589892 -22.921104206387593 16.436903635274223 253 255 253 1.9769871773330212 16 335 51 605 50 508
4739 5.6324953182608466 3.1846940784682842 7.133687463516436 142 125 105 1.7918573068817862 5 600 42 2280 6 2421 7 2550
4738 5.0312684428905712 4.1488992073009952 8.5880072421535321 149 132 112 1.1876862427956338 6 1978 5 599 4 735
4736 6.3890369068845025 1.6949840778686345 5.1819185288894758 189 172 142 0.11566673010932568 6 2415 5 593
4735 4.6765137429874564 4.1527801520470558 9.447314519895663 84 74 62 1.0746002551296634 6 1960 5 581 42 1844 4 682 3 686
15008 2.1435628498638595 -3.419969477828698 4.9949288953385329 195 181 154 1.8482876338985224 36 878 37 1243 22 729
4734 4.655457506684515 4.0895261293427616 9.5114541979694387 90 78 66 1.2666219496627764 6 2413 5 573 42 2265 3 683 1 1664 86 695
15007 -1.2658119191535513 -5.1199976247777457 5.4653278577486955 55 59 60 1.9000748772276934 8 1616 91 925 16 1908 53 410 67 327 50 1045 51 475 58 784 61 924
25486 0.90945886336374171 -2.6721261514554668 7.7784653410022484 88 77 57 2.0798758875198757 53 913 51 590 50 1154
4733 4.9327939438894495 3.5732197417649245 8.7564962737065404 111 96 75 0.91313598554672026 6 2409 5 569 48 2967
4732 6.3958325573965586 1.8716430762490643 6.0949044001549861 0 0 0 1.4498087615281063 6 1934 38 1560
4731 4.894349547194107 3.4674653309533037 8.752756528629515 144 129 108 1.4266429558195628 5 561 1 1659
4730 5.416718017480985 2.6672053507709279 7.4344795880676511 119 103 80 2.3251690864571088 6 2404 5 560 42 2256 87 1671
25482 -1.7672375087126317 -3.9576311901111652 6.4872159577602213 202 176 150 1.8509309730755794 51 551 68 1085 50 1578 49 357 65 705 77 103 60 677 59 408 75 777
4729 4.4576271616135141 3.8048603783269948 9.4887944311088965 2 4 1 0.5728620805038559 6 2735 5 555 42 2496
4728 6.1944839018981632 1.4106361673550833 5.4689064081762186 121 106 85 2.0198448035079108 7 2505 5 553 4 709 3 692 1 1665
25480 -1.4607357222041033 -4.1511795339362703 6.3623665512547101 206 176 140 1.2635865030000879 54 1315 51 541 50 1095
4727 6.288150801766804 1.2616068369933127 5.2816799752167309 107 91 74 2.4343311301854196 6 1921 5 551 4 711
25479 -1.7184576708078629 -4.4851360261809994 6.3416356921928312 126 118 115 2.6253943884217983 52 548 51 539 50 1094
4726 2.2474375793411099 3.5107197239249288 8.6670898119452655 74 72 60 1.5383848412886634 5 546 39 2422 42 2258 6 2398
14999 -1.2726320785462963 -5.2854653029695866 5.2153515184796575 198 139 158 1.3849418944340575 14 2428 16 1889 98 1037 17 966
4724 2.5796213829012418 3.4454672283829244 8.7349576833193154 22 22 21 0.86803495637719763 6 1924 5 541 39 2183
4723 2.5725530614437409 3.0773441382712159 8.6103487857065755 73 70 55 0.99813515856720969 6 1907 5 530 19 2205 20 2116
14996 1.3526413781115691 -6.5773245517108716 6.7697699288026278 0 0 0 1.6408448486201583 81 1198 92 901
4722 2.5710391538187745 3.0770376446808529 8.6034773615569815 73 70 55 1.325787565572629 6 1908 5 529 39 2415 42 1796 19 2206 20 2115
25474 -9.1650166438228808 -40.06601921052529 14.764579251986481 253 255 253 0.38047475806280151 13 777 51 513
4721 2.6673696075166218 2.9757030303267977 8.4529783777549827 47 42 36 1.6602217956110374 6 1903 5 527 39 2172
25473 -1.5554210673241418 -4.8152383232941212 5.8108352773900416 0 0 0 0.57631450719729682 52 1502 55 1640
4720 3.2089973676968118 2.9300006921772987 8.4624068332047422 63 58 50 1.9763828342789824 39 2409 42 2485 3 1184 1 2078 48 2852 5 526 20 2114
25472 -1.5859055697124598 -4.7849074432112397 5.7113416068282099 64 71 79 1.4224518070635477 14 2696 51 498 11 2211 12 2253
4718 5.8023871257893216 1.4595059312095278 6.6510273440067875 124 109 90 1.1908765460047548 8 2606 5 507 42 2227 3 642
4717 4.7486942032407837 2.5380341171374416 8.8416075669632956 4 5 7 0.55527565678278434 5 503 39 1855
4716 5.8845242614415874 1.082523597104907 6.3675077396337469 97 81 65 1.5341271109124075 38 1904 5 495 42 1739 86 1547
4715 2.9813444018444408 2.0259628657600968 8.2070904266830862 39 34 30 0.56578762246822289 5 487 7 2741
4714 5.6060949432191656 0.82273405614982253 7.1832493783353275 98 85 68 0.52906021127060376 5 474 42 1707 6 1833
4713 2.0405807786920698 0.28593418965546441 5.1580512305790265 107 102 97 0.34328540913170991 6 1811 5 463
14986 6.3469548176168269 -5.5713532005208499 5.4805161609198096 71 62 47 1.0765192943252877 94 2178 16 1854 26 1703
25465 -1.386630140106923 -5.1837980329777862 5.4038270465858345 0 0 0 1.0120534355782578 52 356 55 511
4712 2.0405807786920698 0.28593418965546441 5.1580512305790265 107 102 97 0.34328540913170991 6 1812 5 462
14985 2.2483277920260565 -6.1348582220070673 4.9022790602448847 177 161 128 1.6917734721194051 94 755 16 1851 67 909
4709 5.8199942292579827 0.34844191029019167 6.849997280891249 76 69 61 0.15681894341239699 38 1875 5 437
4708 6.2153755963288209 -0.26331276148789134 5.5059165982470386 128 112 96 1.0261879171601203 6 2326 5 434 56 840 57 835
4707 4.8833651121173105 0.76622389738568208 8.0694039511739053 195 100 54 2.5773255708995122 9 1227 5 433 91 1477 92 1477
14980 6.4780815921459221 -7.4151975342768237 5.8451940202778827 0 0 0 0.63870856130037845 14 1812 96 1114
25459 -9.224383613467376 -38.744771491979442 8.5253891941966717 162 194 189 1.7176217416517452 13 1479 94 1982 51 440 12 1173
4706 5.8211818751292332 0.11515497113321355 6.6302921403965609 106 93 77 2.1363781624320706 9 1495 5 432 28 1514 42 2180 3 582 86 1104
14979 2.4068485621945652 -6.748900298256526 4.3655915565551524 97 41 54 0.30033851377157661 44 157 34 1795
4705 5.6990241906180232 0.26182659270040542 7.0187551350287745 155 140 121 0.29372961369210338 9 1214 5 428
4704 5.4232729250279341 0.16252920867774046 7.5787706651646189 88 76 60 1.3918085272256207 7 2397 8 2046 9 1198 5 407 42 2172 4 480 86 481 87 1588
14977 -0.86351099614776261 -7.8673919412080719 4.2728296759825284 0 0 0 2.3687685319983189 15 1759 27 939
25454 6.2693194216446413 -3.4494418004894407 6.3459995831373925 0 0 0 1.6232256578557951 43 1401 45 886
4701 5.8415949867027077 -0.39185711295624542 6.434239300995551 128 116 100 0.41936125563361859 7 2389 5 400
4699 5.7504995920323756 -0.33328072449873336 6.7832465493364005 128 115 99 1.6923755718067919 7 2387 9 1178 5 392 42 2158 57 890
4698 5.5629089616831644 -0.15826044773717468 7.3375899411788144 138 126 112 2.1422112902756147 38 1453 5 391 39 2353
14971 4.2991375497015545 -2.113106840664837 10.774831350908162 81 78 61 1.4988141058296029 10 1063 78 228 34 1127 50 1797 65 354 66 518
25448 6.3041476881232805 -3.5875097828971598 5.6376568129144733 0 0 0 0.12663557278342452 47 753 54 554
4695 3.4776008593665817 -0.46960773399352801 6.2160336343855223 24 25 20 2.0298158076332871 38 673 39 2087 23 2115 8 2006
4694 5.3470460840837699 -0.44807654842081218 7.837401752518443 74 66 55 1.0495183191015356 6 2286 5 350 39 2337 4 378 86 980 87 1766
4693 6.6452240431801162 -1.5497031632099061 4.4014797344612475 74 61 44 2.5792499195229937 37 2157 5 349 4 486
25445 6.2936322007401078 -3.5700580158984092 5.5498841443264668 101 80 59 1.8300855768923789 54 546 64 830 51 313 61 524 60 119
4692 5.2642112454501175 -0.43574106360637982 8.0514395531655403 98 90 79 2.0128081805180913 6 1679 8 1975 5 341 42 1599 23 2684 90 1818 78 1732
14965 0.051731875543461453 -3.1557837874164343 8.7936312834469863 73 75 70 1.4643000535790298 11 970 16 1515
25444 6.3489513974581966 -4.1885901261966039 5.4109924407860346 89 71 51 1.4252458450939713 45 1389 51 275 68 936 67 926 60 114
4691 5.9558370565222249 -1.018169654364409 6.2909864738935104 128 115 99 1.1822117432470796 46 1550 47 2605 55 1193
14964 0.81953404983158495 -2.7870079438888258 8.2892034423193586 144 134 116 1.3892772751281799 11 1696 16 1513 97 382
25443 6.3406417990632971 -5.7559677075776223 5.3507033178188292 101 90 70 0.36538134096538077 64 736 49 49
4690 6.5082495178337858 -1.6962747066180528 4.8129465708903023 97 81 65 1.685284596875519 37 2161 5 321 4 427 2 1162 86 1408
14963 0.63622636182300263 -3.0563995383666231 8.7829191254468615 14 17 16 1.6749416074594825 44 1720 16 1507 97 380 63 782 57 1335 56 475 65 1244
25442 6.6325856923532962 -7.1253351233335795 4.6622593384627802 117 102 83 2.0540291568607043 16 1759 51 165 68 868 69 405 67 844
4689 5.4436987257727321 -0.9039981524677424 7.59807988624061 87 80 69 1.41168385711098 8 2462 5 318 91 1121 92 1135 2 1109 86 953 87 1752
25441 6.6408400239164136 -5.870809220431501 4.6756714179000696 80 65 50 1.8777562777179448 24 1140 51 159 60 18 61 373
4688 6.4268283866223905 -1.6447350195919845 5.0345224582379551 114 100 83 0.94303737209852834 37 2184 5 317 86 1406
25440 -0.022381639638714045 -8.1164496988667132 2.8187018420378864 189 169 142 1.8151030938513522 98 1535 51 139 81 1598
4687 6.5816971999660341 -2.0146318070594211 4.5986481368991887 76 63 47 2.0807519884195655 99 211 5 285 4 388 2 1117
25439 6.7223795580262937 -5.1669040805715021 4.4311853309395204 95 76 59 1.0075164958945948 45 1270 51 126 68 301
4686 4.9319152819257415 -0.95801036747418511 8.9121621860955891 52 47 41 1.2529747641936384 6 1615 5 283 39 2057 91 497 2 1046 22 1387
14959 4.2320214522319048 -2.7408059146145844 10.165066144332501 60 52 39 1.5968236857267393 43 454 16 1499 17 284 18 208
25438 6.8757112313309516 -5.6476270305542959 4.025751810247395 116 98 78 0.19432223594764952 25 1093 51 88
4685 6.1835113040127476 -1.818596084502363 5.7526683472162867 150 135 114 2.3487350144571182 7 1705 5 272 8 2429 4 1517 3 459 2 1822
4684 5.9799814808035494 -1.7079522526084823 6.2339809359999743 83 67 51 1.9017435825889493 37 2679 5 271 91 1372
25434 7.1533681957653625 -9.2819650181166562 3.3371264774990474 103 46 22 0.62330445590683459 14 2522 51 69
4681 4.5948614562912269 -1.3695036956375537 8.2064442350375675 49 44 38 1.7980873638704649 9 1126 39 2036
14954 5.0520919121382715 -2.3612010980713585 8.8485065457212837 55 48 32 2.9835190200684618 16 1482 94 1951 24 909 23 613
25433 7.1252221343946136 -8.8058889313069209 3.3733800562435792 0 0 0 1.7646877137008303 54 336 93 2395 94 1207 45 250
4680 -4.0369438975871104 -0.67071957118857284 8.1316373855541819 140 137 132 1.7906222584511371 6 297 5 243 92 634 18 779 41 476 65 968
25431 6.9808108675916802 -5.5263293690787538 3.6753208710907952 113 95 73 1.1384631307578881 44 1254 54 325 51 58
4678 0.53328058212336138 -1.062600298777671 8.7383622388793682 130 131 110 0.5273766446578394 5 235 91 520 4 1431
14951 5.2856242067057746 -2.0493795112177402 8.2093224821486874 62 55 37 1.0930792177964208 11 1628 95 332 17 257 16 1478 23 632
25430 7.1444195558737063 -7.8068483373722648 3.2955828284518751 0 0 0 0.56699944812188707 54 322 64 463 45 1625 68 818 69 885
4677 3.6417797034097359 -0.74685112017416333 12.258802528180642 86 77 60 1.1659010431888588 6 1584 5 232 42 1542 27 1173
4676 3.6424037841919934 -0.74662756979626954 12.275836766156543 86 77 60 1.3088932938955125 6 1583 5 231 39 2046 90 1794 79 1886 27 1172 78 1736 28 1122 43 2550 40 1577 34 1997 29 1427 30 2081 41 2361 31 1186
25425 7.235645525769792 -8.5290931135489618 3.0316745481798009 61 47 34 1.8578591985698392 45 184 93 1220 51 41
14945 5.0155062363029881 -2.5554206536913275 9.0050190514431012 60 53 35 1.8564428298507805 47 1229 16 1464 24 875 94 1933
25424 7.226068352801744 -7.6513991347871118 3.1479438959645036 126 110 87 1.0130736001731846 45 1173 64 428 51 40 61 156
25423 5.0060834972786656 -7.1603709994223435 2.7607846203700648 21 11 3 1.4501020855512259 13 2286 51 33
4670 4.0946695869181138 -1.3925623376407674 11.187360791272432 102 94 78 0.49090588067638841 6 1557 5 188
14942 5.1831048946715299 -2.3208421331200517 8.453341543074206 57 50 34 0.73621385653042426 16 1457 24 879 11 1605
4666 5.8372212604202067 -2.8135595285167132 6.6793009734547546 63 51 39 0.40794206375189235 7 2219 95 1307
14939 5.2195211884196269 -2.4401543709099123 8.3298044231221091 51 45 29 2.2005032434623746 43 336 16 1436 17 219 23 1452 18 151
25418 1.3540205920325006 -2.7308895737651526 7.745450869842851 230 223 195 1.5249708348949751 44 2827 96 2960
4665 6.2133720990861754 -2.9739855101287049 5.7089725916094389 114 102 86 0.97166989560425421 9 1010 5 146 85 2950
4664 6.2258159690840644 -3.1297623892597906 5.6511516225622529 92 80 64 1.6121354557585188 37 1127 5 137 36 1366 86 1297
14937 5.1058271148996699 -2.6421976277872274 8.4374887054837622 53 47 28 1.1675314636638308 96 669 16 1415
25416 1.7047790384498591 -2.9512691707030259 6.8322970286565976 238 232 208 0.78466947505311213 63 2109 57 2498 62 2280
4663 6.1016213915552715 -3.1320069941909208 6.0412699577728413 90 81 66 1.509268987401496 7 1552 8 1761 5 132 91 973 92 989 64 1605
25415 3.3770201208829334 -5.765120482579559 4.4727816781491878 47 47 47 2.3023495664304665 55 2179 63 2106
4662 6.1034908069581606 -3.13146044759067 6.0402911020030272 90 81 66 1.4185547533070744 7 1553 8 1760 9 395 5 131 91 972 92 988 36 1374 4 159
14935 1.347291189853044 -3.1023816948706209 6.9281325143606747 86 84 69 0.74982652137120964 42 1413 16 1404
25414 -1.5460100162717789 -4.3186974012854353 6.0343652624871327 134 128 128 0.52980719270026744 36 2283 63 2096
4661 -3.7973197114047816 -1.9691455920211731 9.6558553046116149 97 94 89 1.2844450450182818 6 146 5 129 17 605
14934 1.587304353844802 -3.0773390627476913 6.5293498431831427 69 67 54 0.21779244874103032 96 634 17 177 16 1400
25413 -1.7297013775233909 -2.4713640280398015 7.4289253106250603 240 236 224 0.42082923920978232 96 2823 63 2051
4660 -2.080015474086963 -2.2936859599791899 8.1312264829314742 42 38 39 1.7596783730902572 6 1481 7 1608 8 1825 5 127 90 964 28 271 27 1146
14933 0.8949244944669501 -4.2088830465375615 7.9844932537718281 6 15 13 1.9845483759695146 15 1930 45 1564 16 1397 97 1169 34 1036 19 1058
25412 -1.686846432900561 -5.1565550565467984 6.7673533257892986 216 193 175 2.3326870548167897 93 3110 63 2044
4659 -1.8261116015400594 -2.3989598718547698 7.5577419122654197 121 84 57 1.8449921759368753 6 1474 5 123 8 1814 90 1758 29 1389
25411 0.23976808122462528 -7.6583345425506115 2.3332039002571499 240 235 229 1.33040492186667 15 2565 61 2624
4658 -1.8350350725727955 -2.3963898039204219 7.6164530397488717 121 84 57 2.3596705511553377 6 1473 5 122 39 1227 8 1813 90 1757 29 1388
25410 5.6743426787789613 -0.56462495950554392 7.0084226369422407 120 113 103 1.8836236999245568 99 1824 63 1780 42 2399
4657 -1.7591404231163716 -2.4894104502573646 7.2282139842555857 134 89 37 0.4886781107275881 7 1592 8 1805 5 121
4656 1.0635578389410556 -2.7894184759587515 8.7274261306048455 0 0 0 1.5965731142058315 9 418 38 1304
25406 6.3709916311566879 -1.6686786161673919 3.3425828860796645 131 124 111 2.3565564773934393 53 129 63 933
4653 2.3303023523819917 -3.5684886157971452 4.5312381359569116 43 40 33 0.93513398955459826 6 52 4 93
4652 6.3680457028334789 -4.0239195012995772 5.3139453189794024 82 74 63 1.591499069641293 38 1088 85 2561
4651 6.0109404956502477 -4.0300131300563002 6.2666044181344835 70 60 58 1.9751760589801577 7 1505 5 59 10 1832 80 533 81 660 11 1444 95 145 25 1277
14924 -1.74978491551471 -4.1755685704951784 6.1067871780594603 149 139 127 1.95807800161075 15 1561 96 598 16 1376
25403 6.535264658473201 -9.6454246116426976 5.2642245241959182 39 41 40 1.0984671028947739 54 511 63 150 51 839 49 26
4650 1.1011496412823263 -3.7531940544044939 7.8127850308738926 195 183 159 1.5235462875561334 7 1520 8 1731 5 56
14923 1.691791487700548 -3.155049783936815 5.8315833032185509 162 149 114 0.75680666398945584 96 586 16 1371
25402 6.6788902882590095 -2.0433491405515549 4.524579783122503 0 0 0 1.9264442208922277 46 1096 99 1394
4649 1.1011496412823263 -3.7531940544044939 7.8127850308738926 195 183 159 1.5235462875561334 7 1519 8 1730 5 55
14922 1.6956999601816198 -3.1559414057762014 5.8447466836769335 162 149 114 2.4128184472242404 15 1554 96 585 16 1370 98 1116 18 106
25401 6.6841027984936581 -1.5523536227523758 4.3142052286647674 0 0 0 2.0081105280250062 37 2150 99 238
4648 6.329571885168555 -4.1646992741627171 5.3871075967159001 76 70 58 1.3734629620394732 9 307 37 966 4 86 80 1552 81 616 25 1237
14921 1.7112317112836393 -3.051128091345793 5.6236221826554411 169 156 121 1.0825524020493502 15 1552 16 1367 19 1049
25399 6.3791012256956661 -1.6102043516960263 3.4688913936446375 178 61 17 2.4648862888012233 53 141 63 36
4646 6.2731588787552752 -4.312072123904291 5.5138807150435429 81 72 63 1.6184535614599975 9 298 4 64 26 1499
25398 6.3791012256956661 -1.6102043516960263 3.4688913936446375 178 61 17 2.4648862888012233 53 140 63 35
4645 3.0000114229008967 -4.0895870760899431 5.2333243318680251 20 24 24 2.8011590884799751 6 25 5 46 92 214
14918 1.8813017254138777 -3.2200910116677393 5.6060067143022758 156 143 111 1.2782368965811388 15 1542 39 245
25397 6.0169110723813564 -1.3960661783691926 6.1441907164652756 101 90 73 2.2648950623480331 46 1528 55 1572 52 1438 63 1062 5 994 4 1527 2 1115 49 1425 56 853 57 847 48 2750
4644 1.0530188157743305 -4.0549106446463785 7.9752054131843062 22 22 22 1.0919014268523106 6 1417 5 45 90 890 81 1713 27 1079 30 2007 95 1336 33 1409
4642 -6.6491337487754745 -4.1371430584979905 13.531962859430626 220 210 174 3.8394324667414255 7 250 5 29
25394 -1.2233007948431709 -5.2679983994067658 5.3742239375138894 173 165 153 1.9182532865005844 52 339 55 502 44 1941 43 1927 38 1652 96 1772 78 1594 67 1322
4641 0.90418478183983808 -4.3378739042319152 6.8005700598459633 19 23 26 1.4793001246014825 8 1696 5 25 6 1407 7 1491 39 1944 90 857 28 138 27 1062
14914 -1.9878805842604792 -4.8583403868039579 5.81486946286795 0 0 0 1.7975907334682701 15 775 96 539
25393 6.7370359922259571 -5.8015799529804246 4.3902952066086094 41 37 32 1.8098023688227216 81 1630 44 1807 36 1800 94 2663 93 2680 12 2330 14 2780 63 112 45 1667 64 1484 69 1245 68 1197 67 1228 61 1367
4640 0.95288330416128619 -4.4118003529146144 6.6797219637988858 9 13 14 1.6370749113762091 6 1404 8 1688 9 316 5 19 39 1939 90 849 28 130 27 1055
25391 6.3569843129916652 -1.9888738808475646 5.2776658877376308 125 115 100 1.8834766497952782 47 2940 5 1605 4 2505 46 1912 3 1376 1 2265 86 2095 55 1805 52 2391 63 1738 53 1851 57 1976
4638 0.97596627631931976 -4.447869399469198 6.6092602470643582 3 7 10 1.6831911864509044 7 1475 8 1683 6 2106 39 2226 90 1683 28 984 27 1054 5 15 34 1350
25388 6.4590246908133109 -2.0492686812619803 4.9820627064341787 198 185 162 1.3902504747476707 47 2265 38 1744 55 319 63 205 53 262 52 201 56 45 57 50
4635 2.3923928197634248 -2.5766078476421828 5.9725465178971673 0 0 0 1.5868317959341383 8 3405 37 3449
4634 3.2869507168127914 -3.5045861197523358 4.9979934162371338 179 162 144 2.0222206505870837 9 1969 39 2883 7 3241 90 2588 28 2058 5 2033
25385 3.7401268076131178 -5.4459366754751208 4.1997333948833804 0 0 0 0.1767833591339964 64 2853 52 2786
4632 4.723371239584333 -0.099444310812407344 9.3255153420536914 81 69 47 2.2217033147342673 9 1933 5 1945 6 3218 3 1930 1 2697 2 2919 8 3374
25384 3.6180256368845161 -3.4896172437416948 5.4368335520444626 186 182 171 1.3906662471527362 55 2217 64 2855 63 2118
4631 4.8983334411861756 -0.1964469877789044 8.9433853078896366 62 55 47 1.6214992698491535 6 3220 7 3205 8 3376 5 1948 3 1860
4629 5.8232540417517473 -3.1984732320878861 6.7688181296254291 0 0 0 3.5077775995698071 8 3258 46 1921
14902 0.75499423507929564 -5.1153641112645269 5.5672813759003041 178 170 151 2.3373352822650695 11 1450 16 1291 98 516 35 674
4625 0.65829366196752626 -3.8355011927036897 8.3984552525260998 150 138 114 1.6217514149276553 38 2203 9 1585 41 2446
14898 -1.3259289187823766 -5.5006681655167347 4.9520591473540492 54 67 83 2.0331713280747672 11 1435 16 1276 17 73
25377 0.26174016982846077 -3.5767209741527521 8.293805777776095 42 44 43 0.48193826862726086 63 2100 56 2337
4624 -1.6808412558649122 -3.9570325650309592 6.4425607559293594 222 204 182 1.8917835858796153 6 2797 9 1583 10 2909 79 2164 97 1627 40 1679 78 1988 34 1912 29 1347 18 2129 68 1677 50 2517 66 1830
25374 -0.21713897574901711 -4.7691472222821014 6.3513071313232601 44 48 51 1.3149830204486388 24 2248 63 2093
4621 2.2887955738796792 -3.6135245454822496 4.5344795918662664 78 69 60 2.4092532951668804 38 2005 34 2098 9 1335 2 850 39 2444
4619 3.0176293607285714 -0.38096287910151388 5.4924951599920382 90 83 73 1.1364904945057366 96 1590 9 1202
4617 4.621683267934384 0.21954177779597928 8.8723213460900876 67 56 35 1.2573668935036546 7 1828 8 2502 38 1474 9 1182
4616 5.0364250990418524 0.097919678924903844 8.6206188815127955 62 52 43 1.4666970085854096 6 2300 9 1174 5 372 39 2347 91 1435 92 1447 86 1009 22 1664 87 1782
25367 0.87325544125152088 -4.4250143968000977 6.5384395257163286 27 30 35 1.8862252467034146 52 2747 63 2080 62 2216
4614 3.1771732143460301 -1.2830162984069262 6.7859378851090391 35 34 29 2.0900407950187425 7 2325 8 2455 38 1413 39 2321 92 1415 6 2249 91 1407 5 972 3 441 2 2177
4610 5.6283968327152012 -2.6942918927962798 7.2812642600171928 71 61 59 1.8598715608465413 6 2159 99 1447 5 896 10 2440
4608 6.1375165164279144 -7.0525060435843923 6.0534203581875499 63 58 54 1.7964664714178287 10 1620 80 1431 81 434 94 1603 93 1657 24 376 23 1173 25 568 26 780 85 2780
4607 2.6826107377126149 0.52634720865609452 7.8921239129002982 235 221 184 1.6565497882769038 6 707 7 1888 8 2075 39 1729 28 701
14880 6.3825838252708706 -6.1320970492954094 5.117866301845484 95 87 68 0.4936856274368755 14 1822 16 1138
25359 3.282632471431179 -5.8811002396096814 4.7034370318268985 39 32 24 1.7070729643423044 52 2599 55 2070 51 1962 53 2028
4606 2.6492603819790763 0.45597932320871226 7.9634458691630705 232 217 186 1.516718300831347 6 682 7 949 8 2059 39 1688 28 671
14879 6.4749022046026479 -6.2148706501808721 5.1933570383663801 95 87 68 1.1093142585753581 14 1821 96 159 16 1137
25358 -1.7297013775233909 -2.4713640280398015 7.4289253106250603 240 236 224 0.42082923920978232 96 2824 63 2050
4605 -2.8521491520922551 -2.1220777456632001 9.4268737294340159 92 97 74 2.4185327576196793 90 420 7 1614 6 1486 34 1141 8 1830
4599 5.9926105511424232 -6.564861062812362 6.399884851098312 38 39 33 1.1355698928053972 9 164 91 104 92 876 10 466
25351 1.0023260003931596 -3.3292273971667092 8.0885159328129319 216 210 188 0.23587244579080349 52 2668 60 1859
4598 1.0847519077562502 -2.5070956047840434 7.9519383729699076 138 132 111 2.0692518727266012 8 2996 96 2767 9 1605 91 1565
25350 0.80014803024221037 -4.145857187481087 8.1345651278843665 101 101 99 1.4120958541263258 52 2665 63 2014
4597 1.3538483263189316 -3.5159268461235378 6.987237322681727 216 197 164 1.4694358847726381 6 3089 28 2017 34 2486
14870 6.7960214183020451 -8.3415581887307813 5.5540827403133957 0 0 0 2.6206334016277086 14 762 96 19
25345 -0.23765841485926342 -7.2342637842606043 5.5625801228063043 0 0 0 0.16083684212549107 36 2203 64 2709
4592 2.0785850231439378 -3.9962261712858584 4.8365320435962067 33 34 28 1.1115547963963524 8 2314 7 2171 9 982 91 946 92 959 10 2397 28 1596 90 1958 27 1320 37 2090 41 2423
14865 6.6287404400922032 -7.621757559656964 4.7905217273744523 105 98 82 0.045036936106101128 10 1480 16 1039
4590 5.8195972695033999 -2.2020184473825393 6.7111324039724654 152 141 123 1.7411115711920326 47 2591 46 1530 43 2703 99 1779 9 1376 6 2580 5 928 28 1407 3 408 1 1432 86 1640 22 1779 55 1588 63 1493 48 2737
14863 6.59888644348844 -7.858375068357013 4.8856064314180792 64 56 43 1.0801421998855583 10 1468 16 1036 26 601
25342 6.5688386916954933 -3.1770769608605662 4.7789188787175405 149 141 128 1.1644013059192477 52 2594 63 1986 61 2617 49 2685
