# 3D point list with one line of data per point:
#   POINT3D_ID, X, Y, Z, R, G, B, ERROR, TRACK[] as (IMAGE_ID, POINT2D_IDX)
# Number of points: 383, mean track length: 4.5818747896331198
14878 -2.3881353629267124 3.2455442433674606 2.2259988350859778 81 110 56 0.7304635036774817 107 2417 106 3346 108 748
14877 -2.4089504015335597 3.2874139468337047 2.1958786571340942 34 63 9 0.58061578372784306 107 2412 106 3337 108 737
14865 -2.4188703985661055 3.3173007935500416 2.1447557248575388 71 102 43 1.5988439947257924 107 3507 106 3222
14861 -2.3539114114352544 3.2068594717571606 2.1890319154298998 111 142 83 0.86813758012114406 107 2234 106 3187 108 534
14860 -2.3539114114352544 3.2068594717571606 2.1890319154298998 111 142 83 0.86813758012114406 107 2233 106 3186 108 533
14859 -2.4630431596983913 3.4008324396362308 2.0920155616683278 65 93 44 0.86333095162327789 107 2230 106 3176 108 555
14854 -2.4533531228602352 3.3872533416357604 2.0877620310335754 72 103 46 0.91759183033789604 107 2159 106 3120 108 484
14849 -2.4451662072770413 3.3717247127030476 2.089302128378038 90 121 64 0.91043206878190419 107 2138 106 3096 108 463
14848 -2.398977696981544 3.2938903679516622 2.1214636994043201 122 156 95 1.7820130980521867 107 3424 106 3093 108 1918
14844 -2.4612030924608601 3.4106936720976959 2.0725391441097818 77 103 56 2.3585923429165692 107 2123 106 3078 108 447
14843 -2.4310799670515828 3.3529967126460338 2.0897685562163879 107 139 76 1.0520226160526545 107 2096 106 3067 108 404
14842 -2.4325373715681868 3.3575037258207279 2.0854519813712145 139 170 111 0.78394891215778983 107 2087 106 3054 108 394
14841 -2.445755200069256 3.3826939555465456 2.0742435815313467 99 133 72 1.375598832371641 107 2077 106 3043 108 381
14837 0.063615285980931233 -1.4122681446024727 3.6124469755374249 16 16 15 2.2547763091741162 14 1708 107 3358 106 3027 108 1786
14836 -2.3706748175669841 3.252713826249015 2.1127593162477343 132 164 101 1.4127505378632597 107 2031 106 3013 108 316
14835 4.3591139144050395 -8.5143030315672927 5.9881653467862925 107 131 86 1.6744464882429984 44 3027 106 3012 108 1778
14834 -2.4438998883519698 3.3806320896144095 2.0704554354137739 73 102 54 1.5269084037273588 107 2042 106 3010 108 345
14833 -2.4438998883519698 3.3806320896144095 2.0704554354137739 73 102 54 1.5269084037273588 107 2041 106 3009 108 344
14832 -2.4492402378248599 3.3928451338446219 2.0662114903211592 82 112 58 2.1167727849225018 107 2037 106 3006 108 346
14831 -2.3840599252275827 3.271965945088454 2.1031421678358386 144 175 116 1.6479746851798709 107 3361 106 3003 108 1827
14830 10.609986837214652 -23.471367852096716 9.6949807128935745 53 69 56 1.2996260514233038 50 2861 70 2783 106 2989 117 2350 123 2995 125 4685 103 1142 98 2433 107 3317
14829 -2.3394923609245137 3.1985409658654791 2.1208987763154985 167 200 131 1.8262179769104929 107 1997 106 2984 108 259
14807 4.4864784237794639 -12.197770319493788 11.830159827007426 21 33 31 0.66110324889799543 25 1416 106 1725 24 465
14798 -2.398060286201956 3.2953801910432921 2.1026687100336674 133 162 104 1.4731159574312087 107 2058 106 1154 108 342
14797 -2.3535232350339657 3.2191563827197873 2.1284257982668464 118 149 90 1.6651628426326504 107 2054 106 1147 108 332
14795 -2.3792454497101332 3.2669429639924128 2.1084118959614826 153 184 125 1.6302957662280664 107 2034 106 1127 108 322
14793 -2.3727654787635899 3.2579037585757029 2.1064900774372526 93 124 67 1.3335910701897429 107 2013 106 1085 108 297
14783 2.8174996167432269 -8.3990251866041969 9.6865748416568032 103 112 108 1.9229608052925808 70 4220 107 5183 106 5669 108 3917
14756 11.447291866861027 -27.016856328748446 15.816471112013014 14 26 26 1.7473175803990777 50 3896 107 4802 124 3680 106 5356 108 3857
14755 10.182494987128544 -24.644087796771807 10.070376386680232 65 71 56 1.845741877042455 7 6557 107 4757 106 4887 70 3363
14752 -1.2136747082571226 -3.849263912303126 13.910669677898071 44 42 53 0.78101939345553906 52 1929 107 4695
14734 8.0984656860278967 -22.843107805802109 13.117245133484953 223 225 221 1.8844840805480221 2 1937 107 3462 106 4247
14721 13.506619022639489 -52.013731083257944 49.659192454288913 96 85 62 0.87767837954391958 118 1623 107 2731 106 3693 97 2580 93 2849
14719 14.373686517559245 -48.170801861497502 40.773536283660349 128 93 63 1.6094371965583281 118 3229 107 2626 106 3572 61 3768 97 2457
14718 1.4672957438783816 -7.6314178823224905 10.31044036457102 127 156 198 0.72105494581538898 43 714 107 2605 45 1808 108 2268
14716 20.990692327840009 -59.791158340032524 38.567945479508815 79 89 78 0.6601104124713647 61 3534 70 2164 107 2410 118 3036 106 3355 97 2259
14711 10.403772201322598 -26.727548556059119 15.392641463408888 60 76 66 0.98593649581309017 61 3387 107 2217 117 1500
14701 11.839491228551967 -23.29721051864955 8.9572984649176437 73 87 101 1.0371524861719554 118 427 61 1152 125 3138
14675 10.252425100895284 -23.793831439248351 7.7242618582892293 111 121 113 2.1382073453098345 50 3392 61 5606
14660 12.242412777179402 -22.964123759238845 8.0490134767204236 116 120 119 2.2429457188427935 70 3317 61 5059 106 4056 105 3265
14649 11.384085604935681 -23.905392249647498 10.084859805955254 9 17 13 2.2379235749053552 50 1903 61 4311 117 2349 125 4681 98 2437 124 520
14648 10.586852763929249 -23.362366350436098 9.4529588281191135 57 75 59 1.1409005310061668 50 1888 70 1835 118 3996 61 4303 106 2979 117 2346 123 2350 125 4679 103 1122 98 2421 94 4669
14647 10.779825213405065 -23.831925555298014 8.9473096943048098 112 95 65 1.2798744898060679 70 1804 61 4279 106 2947 103 1084 98 2403 94 4642
14646 15.44732642371704 -27.181679364841276 7.6301913024746435 23 32 39 0.051743750472576081 118 2457 113 2803
14645 3.6210808063991879 -8.8217174887816441 8.9934550953369605 16 17 13 1.8279805136233109 50 1221 61 3756 124 1109
14644 7.5462546957117631 -23.62755416101696 20.230004124147211 46 62 51 1.1322545091353082 43 211 44 854 51 2695 61 3735
14643 2.4248973938116358 -6.279820754670844 6.2769905707410496 40 41 43 0.59972606457021715 70 882 61 3712
14641 9.8861330049384879 -25.397782093465363 16.754943112114645 45 61 50 0.74298011214627158 25 1021 118 1071 61 3488
14637 11.147163743440538 -26.082055504960604 12.673704040545045 12 22 21 0.77264051299554981 70 643 61 3264 107 2092 106 1253
14635 10.738222795445298 -24.641112583968841 11.598772596094308 21 34 25 1.1908795244055694 118 688 61 3232
14618 11.751102767443385 -23.543905059247535 9.9338786387820903 125 101 73 0.62925547426902206 118 519 61 1255 50 494 125 3183
14617 11.981816732721683 -23.492644786417333 9.3296875684707086 72 84 98 0.74170622963619892 118 464 61 1185
14616 11.022065154967576 -24.104207757239092 9.0599958292704184 42 54 41 2.2024910583047026 70 445 118 449 61 1184 94 1804
14599 2.5861935120752433 -7.8059491697072945 10.03000175291424 20 23 28 1.6664068478843679 118 6201 70 4317 107 5403 106 5839
14593 11.693716567141331 -26.718166464936854 19.802542742011784 190 195 198 2.1685083955065769 50 4312 70 4192
14589 1.6128080245167684 -8.6140979875889219 7.9597135597302895 147 156 166 1.0601336363820788 50 4013 70 4068 107 4293 106 4974 103 3831 94 6032
14586 2.7190977544622217 -7.4439585255541694 7.7977378241588147 90 91 93 1.9007222004509701 139 4144 70 3857
14574 10.844235622568315 -25.353365071997942 12.905901761140248 18 33 28 1.4226047150590826 118 4082 70 2852 61 5187 107 4218 106 4201 117 3111
14569 6.3736831485330754 -22.529235424255099 24.422879249560488 6 14 16 0.59693038136093313 56 3866 118 3381 70 2475
14568 6.3105809490497018 -22.323744920947135 24.213512499179458 6 14 16 1.1307734346276077 56 3865 118 3382 70 2474 51 2942
14549 6.9710270099247182 -22.977632337811695 21.590816977174025 58 72 59 1.4274665001392701 50 1213 70 1254 43 1745
14548 7.2641235156729627 -22.532055686191534 21.482640652864703 12 22 21 0.4958178128452666 50 1212 70 1252
14547 8.0691818279078262 -23.312411761547597 20.32907681795621 11 23 23 1.3027976619834605 43 1668 44 2243 51 4060 70 1129 50 2338
14546 8.7796720606098884 -23.576720219759487 18.980481749970313 10 20 18 1.9648871771992151 44 753 70 1022 39 2743 61 3654 106 3377 108 2158 107 3602
14545 9.0167215181740392 -25.013031765996629 18.453485173026625 23 38 35 1.0277832761373609 44 667 50 974 118 1198 70 977 61 3594
14544 9.7881604064933327 -25.198017823105953 17.982493635598686 20 33 32 0.88858321343040048 50 916 70 924 106 1627
14543 10.277644985631825 -26.592366823051773 16.477446330746311 52 68 58 0.96937138764108166 50 817 70 824 61 3444 107 2268 106 1504 103 1473
14542 10.258065594835433 -26.544986953940597 16.455629777014028 52 68 58 1.1546957955257386 50 816 118 1006 70 823 61 3443 107 2267 106 1503 103 1474
14530 -4.5027993938627926 8.0619217503621279 -1.5110204980595674 20 20 22 0.50649038188231454 121 973 49 1665
14529 -29.622422647719659 34.560687026768321 -0.080502745376855617 0 0 0 2.4652941407216638 121 725 141 2963
14528 -30.349488712181287 45.183196453514775 4.2029444460289724 82 86 88 0.79928764296272781 27 3262 49 21
14525 -5.5974126359730283 9.1784820350862315 -0.48003287679183826 0 0 0 2.1899351920930497 27 5100 55 4304
14511 -4.7315139374324877 8.0503919500232932 -4.8229918902332631 213 221 226 1.4728430276273266 49 3532 133 3291 109 3623 136 4330 135 4256 129 5407 120 5423 80 3046 83 5121 87 3085 88 4614 77 2871 90 2627 90 3238
14491 -3.7092122431164989 7.3465366513901618 -3.1369660885746016 26 26 27 1.4328503254987019 121 3030 49 2626 133 943 135 2481
14484 -3.4614497438499345 6.9564864633499299 -3.5439291714334202 2 4 3 1.6064338109051728 34 2216 49 1904 129 2787 120 3615
14483 -3.6253996068284562 6.9138887406127134 -3.5531207129199118 190 195 207 1.5356391301764614 34 2209 49 1898 136 2310 135 576 120 4484 129 4021 90 452
14467 -3.6865692340626737 7.0054556802150056 -3.4949265579164188 203 213 225 1.6753399302977996 34 2197 121 2400 49 721 136 506 13 2840 129 2770
14462 -7.1251580046118406 8.6618690326766679 -3.4732899360893583 215 220 223 2.0151928664504513 34 918 49 534 136 2199 129 184
14453 -5.7843005706170105 8.984590120141414 -3.3956572072908697 130 167 209 1.9236751432450874 34 4089 65 4735 136 4581
14442 -10.265131691354242 13.506411570047089 2.5706389013816633 195 213 224 1.0780767131682709 132 4107 65 4560 133 4080
14441 -6.390562229815183 8.9101554018805302 -3.2849475550176939 199 198 193 2.1714882675848757 121 3839 65 4485 77 3425 87 3508 88 5109
14440 -14.02335969250125 16.962898393762007 4.1352189308726368 144 109 90 0.71232781319843974 132 3989 65 4341 133 3912
14437 -7.1283684216427385 10.455948684313462 1.4545122949957556 104 104 102 0.80390799988518391 55 3857 65 4100
14424 -15.254439566518364 18.516089925334473 5.8917647900200762 149 142 132 0.8173154374143573 137 3114 65 2802
14423 -0.1506063403361631 0.68879191894751612 2.7022662393848251 237 236 232 0.62045045244530539 64 3339 65 2770
14422 -15.44407619899733 17.242136351669192 6.9206242269357761 171 171 171 1.0419936743108862 34 1539 55 2034 89 3685
14419 -6.8165692446273356 10.200783339994025 0.56002689520924254 104 104 102 1.2859932860100809 132 1778 65 2143 133 441
14418 -8.5404621158747709 11.32212953088753 0.2155447972921008 78 84 48 0.92973012031877311 121 1909 65 2142 48 4624 133 471
14415 -9.4454590792556008 12.371058085961852 1.6648930891727447 67 72 51 1.2862813176812271 55 2269 65 2022 96 3281 79 1391 89 3257 86 2003
14413 -0.073552762614096337 0.56861130715444141 2.7116075104491801 109 138 80 1.8048395341372223 64 2571 65 1757
14412 -1.6801577105547183 2.6496889761422797 3.4319473163531864 118 148 84 1.0449686360687811 64 2539 65 1711
14404 -5.053765502654616 8.4000574139675841 -1.3652091575316823 129 129 129 1.2048320847663341 141 1561 65 1171 109 1785
14400 -4.8306686507504608 8.3790703640393005 -1.8428526224934776 5 9 8 1.7750814915581534 23 2748 49 1681 135 219 121 2141
14390 2.4855856146619937 -3.5480940866545985 0.48169451457503687 0 0 0 1.3955958517897415 8 7281 14 4652 15 4421 145 4153
14385 4.8269065268829507 -10.288666903057571 6.5761177920109279 48 53 57 0.630716853901231 25 3763 145 4010 21 3960
14384 3.5599357889403023 -5.9120874491673865 0.53372647796240913 0 0 0 0.31961721451341335 4 3391 15 3092
14383 2.5534587501897161 -3.8507299593347133 1.2510462687591879 0 0 0 1.8440565591150473 17 825 20 2786 7 1663 14 533 8 442
14382 3.5457371362126344 -6.5969666119970425 4.0277562658897734 60 83 54 0.06412821099760832 7 1544 21 1428
14381 2.7108298928242895 -4.4846511079397713 1.61072302216188 69 80 56 1.3997005959652142 17 760 21 1406
14380 4.6923612144415578 -9.9591221118062254 6.6521297004799083 0 2 8 0.12370922438015225 25 1169 21 1349
14378 13.422961121479585 -49.630946077522879 46.237720500919941 33 29 28 2.2200403228271797 4 7227 8 7340 17 4358 24 7281 25 4099 39 6479 145 4296 21 4305 70 4381
14374 1.6837593965874913 -1.2232882620350001 -1.9825584366122559 70 66 67 0.37962980221527187 17 4064 21 4208
14368 3.9238543366281227 -9.3740502027596726 7.8101129608853324 0 0 0 1.0980844586706748 124 3738 145 4036 51 6125 50 3966
14366 1.5669467799503842 -0.96970036175150309 -2.1694189674965574 215 220 226 1.7682536060540992 14 2402 21 3970 15 3256 8 5370
14365 4.81261404104586 -10.257341146939497 6.5466539981650991 48 53 57 0.017108074216522454 25 3764 21 3961
14363 10.171211729621024 -25.543332451608439 12.021839511879882 193 197 196 1.923026995486856 25 3729 50 3862 21 3916
14361 10.123725411952218 -24.613144513416238 16.044441548064238 22 39 33 1.2036454742058416 4 6609 7 6608 15 3737 17 3664 25 3472 139 4037 143 3651 145 3745 21 3669 14 3932 14 4295
14358 13.00717040285766 -27.009439025712812 13.341292842901154 9 17 19 0.90437101445458679 17 4000 25 3722 145 3690 21 3618 15 4085
14355 4.0327090353926165 -8.0223067964119572 5.1852960579903575 2 6 8 0.27788605241962694 25 3153 21 3280
14354 7.6231196079467738 -24.209693740179652 19.922388230627494 1 11 10 1.7700934593105888 44 2220 50 2323 124 2150 21 3275 61 4705 106 3443
14348 6.9191674748274306 -11.623087578165725 2.7527248239703352 46 60 37 0.15235523684461122 25 2083 21 3057
14346 3.8124390543571556 -6.6967793926655199 2.8451260824870728 0 0 0 0.5607273509186339 25 2392 143 3394
14345 5.45390338471974 -10.28390716499316 5.5256921292678367 24 29 32 1.60543785768958 15 2167 17 2242 145 2387 21 2464 7 5378 4 6103 2 2951
14344 5.7948437265456176 -10.783156243232378 5.0266937345431941 51 65 41 1.4073776811611236 14 2150 15 2117 17 2195 145 759 21 2406 106 862
14341 -0.76465388471448092 -9.3959186451492176 5.7085624312948795 0 0 0 0.26639680524711651 20 272 25 1544
14340 4.1029242143749114 -8.5794183306218592 6.3807968792588827 0 0 0 0.78488831315605201 118 2991 139 2433
14337 3.8620834724898843 -6.7470688745247651 2.8007630713670415 113 80 78 1.6965612643351715 4 615 7 1284 14 274 17 562 21 1185 15 406
14336 2.7263484084526621 -3.7254757869878259 0.10409017710188573 0 0 0 0.78449467615782853 25 2319 143 2962
14335 5.6924229430180651 -10.697710576152078 5.2030277430790406 52 67 44 1.3840460063974522 7 3935 14 2163 15 269 21 1057 17 2209
14334 11.441197311773404 -27.787341740839981 16.612009739753965 0 8 10 0.78878885047724123 2 76 15 2069 143 1913 21 1011
14331 12.119737302027655 -28.982914306644115 16.780925174553193 16 21 23 1.5570499566809117 2 30 17 264 145 689 21 982 143 115 7 3822
14325 0.83561883641995494 -9.2222817470046294 16.537116037016055 199 208 212 1.8996589564041448 145 3588 118 5701
14323 11.604712682875123 -24.713264481881023 9.5916839467437693 71 85 67 1.0983028513826347 124 2644 118 4822 117 3042
14322 11.753652581226564 -23.404844894950628 9.221977830121185 111 127 142 1.1661638216221708 124 2643 118 4817 61 5100 117 3033 123 2972 125 5048
14320 11.022682268245987 -23.713253346229486 10.460670374027215 25 35 33 1.3411347043484494 50 1938 124 1784 118 4027 70 2803 61 4335 106 3023 117 2362 123 2367 103 1174 98 2455 107 3351 94 3657
14319 11.30664091866608 -22.498306041173418 8.3566332221833246 23 34 26 0.86116518526576469 50 2816 124 1717 118 3958 61 4264 117 2315 125 4635
14318 10.778215306475195 -25.335847620510485 12.873763140861618 17 30 23 0.88114834493292915 50 634 118 2816 70 669 107 2112 103 1287
14315 1.3515118006958464 -5.6994733545112384 8.773837628359475 58 56 59 0.1848272042858124 24 1345 70 2580
14314 6.8658131668797999 -21.96000497615729 22.046997176460991 17 29 29 1.4011781277508117 44 1010 118 1599 70 1299 39 2952
14313 8.9042829832094377 -23.944342860044536 18.358254500895825 32 44 41 1.3336939033751805 51 2591 118 1215 70 996
14311 3.3545722406379155 -28.027228324474546 37.826243167767366 65 54 52 1.8625605080409018 25 3649 118 5279 15 3366 45 2686 14 4105 51 5159 8 6367 20 3418 24 6693 7 6366 4 6266 2 3128 60 5694 39 4501 45 3231 17 3346 43 2820 139 3856
14308 2.4895079329853291 -8.1453579153380211 8.4979976156217951 8 18 20 2.635603221223406 50 4359 51 6286 124 4077 118 6190
14307 1.3395064945203443 -4.1453679284389038 3.4334976335213145 96 79 49 2.6044392882475051 43 2679 118 6026
14305 0.66688295127502983 -3.6808546674675195 8.0118901367421778 111 97 70 1.2187967441402801 143 3777 118 5959 144 4031
14304 7.1141974178573451 -21.574211415839571 23.818563397852571 23 34 36 0.68107381034710945 7 6912 8 7205 118 5874
14300 2.8204685166371624 -8.0030216315735494 8.7032020204993863 43 44 48 0.94389958952136566 50 4014 51 5944 124 3491 118 5855
14299 2.9586503264899449 -7.9258085557666256 8.6025523527883685 124 128 127 1.531871273246002 50 4007 51 5942 124 3774 118 5853
14297 3.7230241216841478 -7.6859907796583489 5.9700890349026627 195 134 133 1.7713039855205099 25 3798 118 5794 24 6928
14296 11.857323452847982 -27.024788510560271 15.63461743539764 40 51 47 2.129984400869902 124 3678 118 5780 61 5967 50 3888 117 3973
14293 0.13229503011090463 -4.1769514241908565 8.3272424572508328 199 208 212 3.4606421921114126 139 4028 118 5700
14291 4.2227863961199947 -9.5018904126659951 6.9763743437610586 0 0 0 1.5678591435036873 2 3584 39 5719 4 6668 7 6664
14290 5.4594463581866686 -13.57052796117147 12.237907974390897 105 110 106 0.26452156634327423 143 3689 118 5562 61 6157
14289 3.8453251977427527 -9.3137089690610377 8.0045308428580491 95 100 103 0.86994425024787569 124 3428 118 5537 61 5997
14286 10.091916002834118 -24.615356803590807 16.073365202056355 51 67 57 1.4444960232823159 44 4078 118 5511 61 5707
14285 11.190359132917639 -25.705607782332482 15.943693344762682 11 25 26 1.7089026114536476 44 4062 50 3524 118 5501 124 3342 107 4806 106 5362 108 3510
14284 10.759169355012364 -24.170370521850703 9.6159621925143774 17 29 29 1.3172536587643457 124 3630 118 5434 61 5909 50 3435
14281 11.47957645844153 -23.174607873783394 8.8604743093654719 9 24 19 1.9220189123835318 124 2631 118 5422 61 5900 117 3025 117 3507 123 2968 123 3438 125 5044 50 3414
14271 10.755933261167483 -25.431545472272148 15.781478045292987 52 72 60 1.2466881876059097 44 3609 50 2980 118 4968 124 2793 21 3651 4 6061 7 6153 15 3731 61 5257 117 3582
14269 4.0225744350520616 -8.1783137357068831 5.2419116959271905 186 181 178 1.0796217649108775 25 3527 118 4940 117 3564
14266 11.852472887312947 -24.673221038651434 10.819396084506165 37 46 41 0.89380130437218053 124 2683 118 4867 123 3001
14265 5.6804530431290923 -10.88115924871361 5.130686254877908 182 197 202 0.81127906732611343 50 3467 118 4863 61 5621 117 3064
14264 10.549757227281843 -23.921404879151297 9.9648172761669009 39 52 43 1.7251319888710712 124 2678 118 4856 70 2792 61 5126 107 4175 117 3068 123 3467 50 3453 103 2418
14258 3.8541630294802172 -6.8362585225311356 2.8727452904193993 19 23 24 1.5602370249060815 124 2675 118 4798 117 2299
14253 0.83219315056334464 -17.128773045342374 27.289971362992965 99 109 108 1.2944265458093853 43 865 51 4463 56 4152 60 5149 118 4704
14252 1.5028646434999191 -6.0497002880072737 10.301414322171974 6 11 6 1.4617436755898952 39 4640 118 4609
14250 5.9928509986230152 -22.527802109143934 24.272523843775247 24 39 34 0.65410312937613801 39 3037 118 4466 70 3173
14249 6.0903556716766758 -22.767069180421078 24.211120517473969 0 0 0 2.376825058090045 17 3246 124 3004
14248 6.8718288728898891 -21.487996163853264 22.5946026950879 5 15 16 1.2793903731034704 15 3260 118 4436 7 6681 17 3773
14247 3.0070163942404085 -8.3311563776876216 9.2317020967847263 23 27 28 1.6228648968954371 50 3201 51 5040 118 4418 124 2281 70 3564
14244 2.9536975617605372 -7.8550328419864588 8.2283607292035601 39 41 40 1.0285671059733363 43 426 44 2397 118 4388 107 2315 106 1555
14242 2.7437608514707272 -5.7621968867642934 5.2891154923973973 130 160 108 0.78388884020120764 50 3119 118 4268
14241 10.090987015988031 -24.644793415930724 17.086252560044429 35 51 43 1.9270552132911389 50 2198 124 2010 118 4221 44 2059 61 3511 103 1516 97 3284
14240 10.285502261847475 -27.01400000930461 16.939006817461802 82 77 56 2.6379098679833612 124 1979 118 4187 61 4535 106 4292 103 2646
14239 10.213576911698091 -26.811253995762307 16.815378027686414 82 77 56 2.1723665197354549 124 1978 118 4186 50 2154 107 3506 61 4536 106 4291
14238 3.1834163744281847 -7.2553723153227372 5.1766081535051693 30 36 35 1.4931003163639898 118 4174 21 3329
14233 12.620952730737663 -26.761081400600013 12.760742682367455 42 47 43 0.88538297729394522 124 1822 118 4062 50 2884 117 3087 123 3034
14221 2.1878150377810481 -19.236536071662595 27.667092494451868 79 85 85 0.68818882054757013 143 2402 118 3672 144 3002
14220 1.9225564210835369 -7.363213164260384 11.532571622641052 30 31 33 1.573594945590312 45 1851 51 3208 118 3588 56 2791
14216 2.535648524972169 -7.7686764112008966 10.369471434937907 178 183 187 2.3689811081501309 51 948 118 3432 70 2473
14215 6.3907205678019094 -21.615295786371732 22.616505353796882 7 16 21 1.151156317881316 39 3002 118 3355 70 2426
14211 3.5485367629522817 -8.8525318108866369 8.8669000072888107 30 31 31 1.074064749083723 50 2410 51 4148 118 3223
14209 9.2587624527897994 -24.52748746426802 17.844964654402773 45 60 53 1.5236476620269575 44 2109 50 2238 118 3079 70 2168 61 4606 107 2374 106 3309 108 2081
14208 9.6440225878359946 -25.54712119473972 17.071257521557289 23 42 36 0.90124318675405757 44 565 50 882 124 831 118 3024 70 2133 61 3503
14207 10.317080309788775 -27.65250742514532 15.437992239382995 238 240 237 1.3086606076189524 25 2313 118 2918 21 2369
14206 24.753272049423408 -62.901068283644534 31.364735203481015 88 90 87 1.2769507760296686 25 725 118 2835 117 1407
14205 5.1221879721367136 -10.403591264274281 6.0841049999585559 52 56 59 1.3181671647354993 124 698 118 2831 44 435 117 1380
14197 10.719793641173901 -25.463940787767378 11.933013545538065 27 38 37 0.93751063575818161 50 1992 124 1832 118 2775 70 1922 61 4389 117 2393
14196 10.332848932802456 -26.177436754839356 11.860374613006007 224 226 223 0.42138238243573367 124 591 118 2766 117 1326
14191 10.723457655889323 -23.388924731784108 8.9919353558290176 42 55 46 1.4231180079394701 50 456 124 480 118 2632 61 3102 117 1174 123 1309 125 3167
14188 3.864476266919139 -6.8211437221993494 2.9153361726563007 197 139 138 0.98548258211038564 50 1874 118 2591
14185 11.235512855915479 -23.006666924484342 8.0982259937595735 60 70 59 2.1319853015987644 124 1696 118 2572 117 2307 123 2301 50 1828
14183 3.9183240399898458 -6.6257232712250218 2.5605133786597079 149 148 149 1.4863721297436476 50 1830 118 2543 106 484 125 4608 113 1384
14182 10.899680128896398 -23.40187814140679 7.260532018718739 52 62 53 2.7835574602909263 124 352 118 2528 117 1059 123 1198
14181 2.8682625353015978 -4.637384690534657 1.6724430503097518 132 188 239 1.5218153213572707 50 2783 118 2471 123 2315
14180 0.88881273325083232 -16.621183486780332 26.715531712354725 226 232 231 0.7994774557264307 56 758 60 2990 118 2331
14179 0.87440331048684072 -6.8856073672683635 11.37887434061104 175 191 206 0.31336555496924035 143 1386 118 2166
14177 4.7348548397608354 -20.497384015983702 23.908191505274367 55 67 55 1.0623727082403103 45 266 50 1466 118 1827
14176 5.8403879554990681 -20.419765928096247 23.425221637015966 6 17 13 1.5100171403015181 124 1243 118 1762 44 1155 45 215 50 1396
14175 5.1637241632320583 -21.692076806719406 23.778886435241525 63 73 70 0.71616498677037888 8 647 24 591 118 1755
14174 5.6338596808314607 -21.563435872608537 23.723836720678253 46 59 51 1.4675751226383671 124 1229 118 1734 70 1412
14173 2.6115960129482878 -7.9599235703291376 9.6185057820268796 133 140 141 0.088952120026301665 51 793 118 1687
14172 3.2783352657908922 -9.4250579454442285 10.883382315929513 38 44 40 1.0100767806370545 139 993 118 1648
14171 6.5851386750633436 -22.126019636305333 22.233317260000828 37 54 48 0.62182542962198484 39 609 44 1023 118 1609
14169 3.0617047396315407 -8.2601702565146748 9.299806389152641 19 24 27 1.8510336405100665 50 1333 51 663 118 1588
14165 3.0342407977930965 -7.6138426143012303 8.2909348061073853 117 125 101 0.62055312369116944 25 1581 118 1507 106 1575
14157 9.9359094259979504 -26.584792919410166 16.421072380482023 72 81 66 1.5361659920251429 17 365 50 822 118 1019 15 239 145 789 124 788 21 1067 70 833 107 2277 106 1511
14156 10.412116092110672 -27.472868725624878 15.376547553697481 58 65 55 2.2285352734974095 25 893 118 906 21 987 117 1489
14155 4.9935627896288937 -10.222601362636643 6.1511438569199903 28 29 31 1.6989976863542857 124 724 118 838 50 729 117 1395
14152 3.1813964614140766 -5.8583795761557074 3.6476653874576139 138 168 118 1.4166352904626642 124 741 118 770 117 1340
14145 9.7136149407862362 -24.592235967056638 9.3025041683858323 97 102 96 0.42233681479492446 17 37 118 498
14139 0.40442284850515958 -0.57147131633386228 0.5170663573615949 122 150 100 1.7256614493329261 44 1528 118 195
14137 0.68717002782067393 -0.87179001664700051 0.92156794574680412 131 162 105 1.8881745654355848 51 6290 124 3486
14134 9.9889283775072588 -25.571089587645915 17.293663322787573 7 21 22 1.7295287265657384 50 3554 124 3377 70 3473 14 4297 61 5723 103 3860
14132 3.6358301414721783 -8.7792155166241699 9.2110930638577955 182 178 170 1.1787022506822247 39 4386 50 3664 124 2953
14130 3.3240203056890469 -6.1515844422980326 3.874916643626114 133 168 114 0.22785284285493415 43 33 117 1354
14129 10.746710840950865 -23.714750467041394 10.31386626793782 24 41 35 1.6068178655157817 50 2869 124 1782 118 4026 21 2267 70 2802 61 5133 107 4183 106 4145 117 2360 123 2366 103 2433 25 2187 98 2450 94 5403
14128 10.409132545616675 -23.780130973514641 10.146851002776092 25 41 30 1.7154805251589955 25 2184 124 1781 117 2359 118 4023 123 2371
14126 11.333785225274863 -22.425802871454167 7.3659570208347223 51 70 51 1.6245568244757933 25 2946 123 2273 118 3919 125 4018 117 1057 50 1807
14123 2.4524413865712873 -8.1100174901772117 8.1728056707703072 90 94 97 1.5262343392785833 51 6366 44 4674 124 4073 50 4439 118 6184 43 4129 70 4303 106 5821 107 5381
14122 0.17973236486116595 -0.15531599940305607 -0.32614451266113709 10 22 16 0.68404086391008712 43 4398 124 4267
14117 7.4981850927997993 -22.185916962510369 27.884959811266356 0 0 0 2.1529844406339742 17 4298 50 4453
14115 3.1014089355611678 -7.8867396009640274 8.2896071336582615 0 0 0 0.90790493090260349 43 3944 139 4423
14108 4.0103782455507826 -8.8528765861966754 6.2157252426471725 0 0 0 0.53920269003923749 44 4632 50 4174
14105 12.562056738167371 -32.618045604029682 31.143365909351633 72 72 78 1.4926046674822615 25 3931 124 3759 24 7164
14102 4.4195074777209289 -9.2886630605570861 7.5264265472006544 0 0 0 2.1793509567604663 39 5727 50 4190 51 6116
14099 3.8097840709928277 -6.5732070075931679 2.5532583458883717 191 133 132 1.3095640550294374 118 5395 117 3485 103 2077
14093 4.8173472265711794 -10.162777679427478 6.3286219770511325 103 107 108 0.8124388142361284 2 2985 124 3343 4 6128
14089 6.3002326264283397 -10.464370407507058 2.9700669525147325 182 125 124 1.3707923955732528 118 5367 123 3381 98 2908
14086 1.7848507817627386 -8.5887246889592017 8.0697507431624071 139 144 150 1.7161841855400397 39 4401 51 5605 118 5117
14083 4.477869184339224 -9.6435719708785577 7.6495158042490585 14 15 20 0.84587871010750693 145 3353 124 2867
14082 4.5815543883160359 -9.6096286198204801 7.1648958285708284 73 80 67 1.67952707810747 39 5168 124 2853 21 3289
14081 4.0825860450267912 -8.0984012407226107 5.1829421781593359 0 0 0 1.6268746766836202 8 6222 44 3630
14080 10.936138638064474 -27.214115931927164 14.856680210344637 55 49 31 1.687116830355204 17 3080 50 2943 143 3329 145 3207 124 2762 21 3148
14077 4.8550644535330436 -8.9312590140213466 3.9939602148657576 117 127 107 1.6805250519790391 7 5368 14 3299 15 3136 124 2689 17 3137
14076 15.050089675082095 -27.251569983628141 10.883788249116387 82 99 65 0.84650885518994423 7 3554 123 2311
14075 2.9824268314498568 -4.6407656110412798 1.444171568396351 241 246 250 3.0151485843497325 44 3516 124 2614 123 2936 125 5271
14074 2.9824268314498568 -4.6407656110412798 1.444171568396351 241 246 250 3.0151485843497325 44 3515 124 2613 123 2935 125 5270
14072 6.2669453813953755 -32.606937410303729 39.400832696160755 207 212 215 1.1242475834705628 139 2471 143 2262 124 2393
14071 2.7160067910014396 -8.1959353859040363 10.018552044929914 14 18 20 1.9328462257938723 39 4460 44 2495 50 3246 124 2360
14070 2.9104812967536131 -8.4006117372261357 9.7758870652266872 0 0 0 0.30655963035218281 39 4434 50 3224
14067 1.085588326952037 -1.8372996811897662 1.7848461273060505 107 143 73 1.4997357986328435 51 5582 124 2199 50 3642
14066 1.5824957587430066 -3.0071879463524196 2.7288676538179031 251 255 252 1.1110271227858324 50 3625 51 5565 124 2159
14065 1.5824957587430066 -3.0071879463524196 2.7288676538179031 251 255 252 1.1110271227858324 50 3624 51 5564 124 2158
14064 1.6656852397976867 -3.1511894856502733 2.8251395766303879 250 255 252 0.78682778915386964 50 3620 51 5557 124 2153
14063 1.6656852397976867 -3.1511894856502733 2.8251395766303879 250 255 252 0.78682778915386964 50 3619 51 5556 124 2152
14062 3.6814221704686352 -8.8330909997572 8.8029139328545778 36 47 32 2.2162808538600083 25 2620 20 1996 21 2726
14057 5.231436536083903 -10.428814035580743 5.7177967635644986 10 13 20 1.3701302385489218 44 1909 50 2036 124 1891
14056 4.9480542367411502 -8.9940422160195972 4.1835793313994456 21 31 22 1.8157004314600063 14 2192 50 1931 15 2157 17 2231 125 5060
14051 3.7985134705950983 -6.6891539584637858 2.6794523634595917 14 24 26 1.1260376526996865 124 1761 118 2561 50 1850 123 2335 113 1414
14050 3.9097584107550203 -6.661305861794788 2.6999615571988351 130 138 140 1.3230882691746377 25 2375 123 2331 7 4047
14047 5.2481607166737811 -9.0328926230641251 2.7147260142762284 79 96 62 1.9630945456246831 7 5288 15 2038 124 1646
14046 4.7277371290024872 -8.0854583962976037 2.3129462553333759 75 92 60 0.53792686085552821 15 3094 124 1639 123 2236
14044 2.5062567528337727 -3.662926808598153 0.79548947423586369 109 101 105 1.4791419742165173 124 1603 123 2205 125 4942
14041 2.9565716230958872 -7.9404420639532916 8.5033902525131086 0 0 0 0.87559918298775852 39 796 44 1079
14040 1.0450122001950468 -1.8537678478689714 1.9502656371249656 131 168 99 2.2548653825645051 51 5020 124 1144
14039 13.385727277207225 -50.657895171369368 48.783113017355923 75 67 48 0.90802054557731959 50 1254 124 1140 118 3339 107 2732 145 1106 97 2581 93 2852
14036 8.8373226771807101 -23.893530132185479 19.684149412578012 4 18 18 1.1721742078686579 39 268 44 774 50 2304 124 975 118 3162
14035 19.678591261361451 -62.375882198507753 46.030952090495269 238 240 237 1.0906155178147778 7 3964 15 293 17 434 124 919 14 138 25 1068 118 1259 139 2093 145 859 21 1147 106 1925 97 564
14034 2.7734368595746801 -5.6058673673550494 4.287584015392456 0 0 0 3.0541700590865424 7 1882 14 664 44 2181
14033 22.296522648058183 -66.44169909243746 46.663101701117753 234 236 231 0.7583023077137504 25 1014 50 952 124 886 118 1196 61 3607
14031 11.361299859809002 -25.928420756924421 13.952042998925991 9 24 21 0.78655203334827828 7 3793 50 662 124 659 15 2030 143 75 145 634 118 2847 117 1402
14028 5.3394157546495649 -9.4519910946927101 3.1620149952220897 43 49 47 0.37688608278542463 25 2227 124 383 123 1203
14023 0.52340547319321851 -0.67414193762844488 0.79918289733862902 41 69 12 0.44165196638283177 51 5147 50 3743
14021 0.50898814773384105 -0.58992861904676019 0.68057805408030703 120 144 92 0.85456237743480679 51 4356 50 3286
14018 0.50385838254614046 -0.55119722164254192 0.61756202708860841 107 134 81 0.63140783685244239 51 4340 50 2579
14014 6.6752129819788726 -11.511348000487258 3.8977714674238171 79 94 63 1.0178778840216636 50 1794 21 2277
14013 2.3539781257641006 -6.9386775518355002 8.9210328607507918 0 0 0 1.0277412990553434 44 1247 56 2590
14012 2.9026201705797949 -4.6275189456286014 1.6700618748118656 111 111 111 2.5868442822947983 44 1761 50 324 125 4569
14011 10.446017270845019 -25.990348332412815 16.556001361024094 11 19 20 1.1148038005291863 25 3471 44 4070 14 4292 15 4099 17 4023 143 3647 25 3748 7 6607 50 3534 124 3363 118 5509 21 3942 70 3818 61 5704 106 4946 107 4817
14010 3.7514875986872496 -9.1225565758264526 8.2744073996047103 15 17 17 1.0739434293108099 39 2919 44 2284 50 2339 51 4071 43 279 124 1032
14008 4.0044370134223666 -9.2190358257364018 8.0064252015726947 0 0 0 1.4653124991656332 25 4068 51 6355 24 7240
14007 18.371400844419767 -61.766752062138629 48.301948534973086 220 225 231 0.52428617252767473 25 4060 50 4424 124 4056
14006 3.9848243108300765 -8.8043497303128078 7.0687895281896527 0 3 8 0.87524751785183208 2 4220 4 7167 21 4278
14004 3.6404731907910355 -8.2620732195976672 6.023301153859915 75 78 83 0.18857456158158081 20 3802 50 4313
13999 5.4606792196522012 -10.297572792134718 5.4322052024752043 61 70 65 1.0102033565900719 44 4407 50 4132 124 3883
13998 2.5509756970972433 -8.0355349302540411 9.8895600636299523 117 122 123 0.66678465029259781 7 6737 15 3916 50 4039 4 6726
13994 3.8878828357400601 -9.2640425565185556 7.6849106247316303 0 0 0 0.37814511448242988 44 4479 145 4037 143 3839
13993 4.0890251590237376 -9.459995176765764 7.4225994259184249 137 141 144 1.2100676811320088 39 6060 44 4129 124 3724 61 6140
13992 9.9585031590531461 -27.593977534078562 15.214928957315854 225 226 228 1.810133580374746 143 3901 50 3895 124 3679 70 3804 61 6131
13988 0.49513922640646685 -0.50610778775258747 0.5557622507938379 76 103 49 0.72056032319313701 51 5670 50 3728
13987 5.1237575874843815 -22.255429837827684 24.145768303557393 217 221 224 2.3647636935898517 25 3811 50 3698 21 4022
13978 7.4633009932048591 -23.28083564987762 20.507413880816014 51 67 57 0.76216156605043484 2 3012 51 4954 50 3135
13971 3.9285776019451273 -6.6706624859903227 2.6260358227751732 22 27 30 1.2359474156374066 50 2812 124 1747 118 3920 125 4613 75 3983 113 2645 105 1249 71 3713
13969 0.48039180204916926 -0.47082525940464853 0.53067386503026304 46 74 25 1.3184550212291122 51 3183 50 2625
13951 11.000272490912669 -23.617912733599617 10.278852657508956 15 28 23 1.4542290413355352 25 2183 50 1927 118 2703 21 2259
13950 10.980403811236513 -24.016028878348472 10.310181297989581 21 33 29 1.5392533161753892 50 1923 118 2694 70 1864 117 1253 124 536 125 4117 123 1376 103 1169 98 1413 107 2000
13946 0.43403407932562543 -0.48909603839706567 0.49860560271980026 0 0 0 1.1624678427490305 51 3178 52 81
13939 0.4935187722881868 -0.47948370122982026 0.51603963582316803 41 69 18 1.1492064448270893 51 991 50 1474
13933 3.0825824559093991 -7.7716566415330064 8.3496153458198989 164 166 161 1.4379696282097556 4 1368 7 2052 17 1086 50 1285
13931 19.488004391587697 -63.481330161122898 50.032688574381403 0 0 0 0.44236186493629798 7 1200 51 2631
13930 10.094143776795109 -24.930182511398939 16.497282463582419 14 26 22 1.3469430965449443 7 3938 50 862 124 807 70 2115 61 4545
13928 10.894569774719956 -26.386758923088419 15.702113788801411 15 27 27 1.4979407871751225 2 83 17 304 143 153 145 738 50 770 61 3392
13922 5.7447066762685326 -9.7003239429912611 2.8120192180091017 79 91 62 0.14543021025954586 17 188 50 226
13920 -10.332041041745942 3.2499637889838144 20.996757001083537 93 92 90 1.7066796529990522 63 3990 73 4267 78 5787
13919 -18.307948773147682 15.839673854816008 23.180403049024086 213 209 198 1.334441794316426 74 4110 78 5675
13916 -10.878709998025471 6.584273932748606 19.519273225075921 38 46 32 1.429052017561304 73 4537 78 5827 74 4303 134 4615
13915 -11.04447453869729 9.0324742898986177 13.138615135833891 236 236 236 0.27442311829091948 73 4894 78 6185
13913 -16.825937597670229 18.437183007032807 22.560792639075586 123 153 112 1.5923736355627702 40 6675 78 6165
13912 -12.837531105838512 9.1212555671783857 27.404137587422866 0 0 0 0.23736712315577571 68 5029 73 4760
13911 -10.444852517809958 8.9334748555852634 18.757690900628759 160 162 160 0.25584564692482781 74 4494 78 6075
13910 -12.180630390825645 6.1647315917959338 19.458803097600768 0 0 0 1.6456103698342468 68 4961 74 4593
13909 -21.652331472311829 16.094501654863965 27.520310661013021 238 238 238 2.3734779356688169 74 4499 130 5451 78 5988
13908 -12.443746585069766 5.8383475739934365 20.498324727427548 0 0 0 1.3953175888328451 67 4519 131 4014
13905 -12.204097453076237 12.945433998643967 16.238907434150473 81 81 80 0.41494759864144498 73 4415 78 5894
13899 -12.962742409636059 6.2635641336510641 20.218419651678719 0 0 0 1.0555240981212806 73 4321 132 3842 134 4614
13898 -21.157311880832754 15.01884282376256 27.916218699463521 0 0 0 2.2840667422104364 68 4323 74 4078
13897 -17.1563498648528 13.371171592292978 25.119972429082303 89 79 78 1.7189076937058581 73 3445 74 2947 132 2978 78 5285 134 3624
13896 -11.316053050858526 8.3715473699165823 19.061897253829116 51 59 44 1.3513187853528796 73 3422 78 5270
13895 -11.265228027026664 7.8347750897145003 19.5409502718041 70 83 55 1.7584412141391637 73 3955 74 3601 134 4216 78 5249
13894 -12.747705002123269 7.2548190930121281 19.921867504913429 0 0 0 0.035766440803835745 37 3860 74 3588
13892 -13.565266740868321 15.166129401465902 16.288986697304072 137 128 112 1.2427162029781722 73 2862 78 4941
13891 -13.332112149104967 14.324882763606139 16.753829828055689 64 67 72 0.90514266392614084 73 3628 78 4914 132 2190
13889 -12.805618809375289 8.1594001119322321 19.597670992203788 54 65 51 0.55914583108100147 73 3419 134 2554 78 4677
13888 -12.866355289207593 7.9444572980654327 19.622725679897869 60 73 53 0.36710247147935904 73 3411 78 4672
13887 -11.120883727668625 7.4442492602007055 19.630841520621981 62 73 44 0.56502369458793789 73 2433 78 4640 134 2502
13886 -12.867307790815763 6.6108421284857473 19.886789023103326 0 0 0 0.9201985595224369 37 2909 74 2830
13884 -10.554207814737099 3.7918942104618862 20.298152522102416 47 57 46 1.2867202432949087 58 2048 73 3209 78 4433
13883 -9.1854184707824498 3.8751266505878532 19.861127947417877 22 32 23 1.1765798297627308 73 2185 134 3447 78 4424
13878 -13.581330844054438 14.450210457284388 17.086562989660329 192 196 205 1.1745392630626801 73 2814 132 594 78 4035
13877 -16.875073133097143 14.09492472942468 24.24738402333471 56 52 51 1.4007763985762243 73 2581 74 1952 134 800 78 3719
13876 -13.354485083270593 12.240436668129171 21.941623539778593 153 157 156 1.4218658413179535 37 1705 74 1941 78 3687 36 819
13875 -12.559492315898741 8.117758005630634 19.389229415101287 204 206 203 1.30656894956546 73 2506 74 1851 134 662 78 3629
13874 -11.947122758521187 8.6534581907517989 19.69819402175823 30 42 28 0.063839085192116535 73 1132 78 3626
13872 -12.395907345599229 7.9231555524328199 19.51846425867252 36 46 35 1.1164932174531701 73 2481 74 1831 132 261 78 3606
13870 -11.696708233534403 7.9543696344919326 19.494981279014468 64 77 57 1.8341904750468958 73 1088 134 614 78 3591 74 1824
13869 -11.141938641134614 7.8625442841876199 19.818083346987159 45 55 21 1.0805200312705641 132 202 134 572 78 3559
13868 -11.268639326147188 7.9740515576766535 20.000368636581587 45 55 21 1.2346672091452444 73 1027 134 571 78 3558
13867 -12.00621610093434 8.1227575623392312 20.469407104546992 0 0 0 0.97126577145534898 64 1820 67 2055 68 2798 73 1030
13866 -12.492917127524466 6.6241455483035701 19.248105974708221 0 0 0 0.46626067012274974 68 1456 74 1766
13865 -12.492917127524466 6.6241455483035701 19.248105974708221 0 0 0 0.46626067012274974 68 1455 74 1765
13864 -10.778030077603731 7.4789848232738052 19.577247331903671 13 21 8 1.384451868387309 73 2422 78 3532 74 1779
13863 -12.732650006018991 6.6060731471613829 19.905716383003881 0 0 0 2.362874258515038 37 1401 40 2769 74 1729
13862 -12.732650006018991 6.6060731471613829 19.905716383003881 0 0 0 2.362874258515038 37 1400 40 2768 74 1730
13861 -12.41881582217599 6.2547731214010094 20.017823468810203 53 55 50 1.3417023843890457 64 167 67 367 73 937 78 3477 68 1385
13860 -10.682267415226963 5.0950557988458867 20.021602607113476 226 228 223 1.8917402764478772 73 2276 134 319 78 3364
13859 -10.078832123128237 4.2569256980399475 20.387732574218614 29 33 32 1.5409605849600847 73 2208 134 190 78 3295
13857 -8.4228320886634549 4.5877297415445879 22.065802620477104 108 103 83 1.8612649196855831 68 976 73 559 78 3213
13856 -16.354041591947894 16.370790155350619 16.211309213651624 100 82 60 1.5355478192929268 10 1693 23 2063 27 2495 26 1790 28 1145 36 2700 40 3441 19 664 35 1988 141 2262 13 358
13855 -0.86077156718627734 -1.3361212112328027 8.3342559344209182 71 87 56 2.5745237281086242 39 4066 41 1606 43 2455 32 2767
13854 -8.6677368531946382 8.0680409048703403 14.669962170156705 18 70 114 2.1501056008653259 64 1978 67 3126 134 2666 137 2488 78 4800 73 3504
13852 -29.52450220214315 25.849046982016514 32.694673979897104 66 68 64 1.0754308903842686 22 1765 10 1631 27 501 23 467 19 575 141 175 13 276 48 2586 130 2300 10 2931 58 1171 140 2478 137 2647 64 662
13851 -5.9732119089788274 -1.6326672142091601 24.515937455249745 27 44 30 2.0494900398598519 57 128 68 2015 63 2042 142 2823 131 1618 29 277 41 359 22 2135 38 867 30 995 16 2821 9 932 146 4055 147 232 8 6095 20 2652 56 4732 144 2533 5 817 138 2874 3 2111 69 3253
13850 -25.059399737809315 25.965755784960049 25.044833054034925 70 49 46 1.878038263078597 134 5165 132 4339
13849 -16.824979181831687 24.695994621566673 3.0250639014091094 112 113 115 1.1940770490319694 34 4062 132 4208
13848 -27.217750321823988 24.208222642144626 30.14358753082427 187 194 187 0.99131833774341049 132 4151 67 4411
13847 -12.611280665158144 6.3949974853572638 19.978174129096402 80 89 66 0.73329915892243758 67 4622 78 6065
13844 -5.0539608278007782 7.4101975681076686 2.1505703108300978 0 0 0 2.0311897006270314 48 5637 130 5081 55 3825
13843 -29.935485020580586 31.839220437566151 10.704234439149179 57 43 42 0.39713644350509825 134 3291 132 1266
13834 -14.775471629049397 12.650356008643696 21.710339841931848 25 27 24 0.64582562341474092 73 4891 132 4345
13830 -21.210120817938005 20.702225329524907 21.676543284881621 0 0 0 0.20680999463583344 67 4708 74 4673
13828 -12.875143758213602 6.5209746242065014 20.252588078035998 72 77 70 2.0927041292503015 134 5042 132 4219
13827 -9.8747465948221347 12.75344047135439 1.8758480313373322 27 32 12 2.0254855202459159 130 5520 132 4210 65 4692 133 4174 89 4782 86 4476 35 4739
13825 -15.076498218969604 17.770253909094976 4.4741291056585286 17 17 21 2.0917052096231106 55 4143 132 4193 133 4159
13822 -11.932302219845356 14.474860221833669 10.141384591142883 0 0 0 0.19903467734864463 64 4340 134 5071
13820 -12.869134967087156 16.464470285218283 3.3960674945514677 83 59 47 2.4738410959806645 130 5429 132 4103 65 4352
13819 -14.359419587065441 18.240027654108239 4.6853660470619687 4 6 5 1.0791182935569723 134 4934 132 4099 133 3907
13818 -17.033802132618067 14.481509741706869 24.573170451028545 33 34 36 1.0261749880771203 73 4569 74 4336 132 4055 78 5863
13817 -16.633307939148082 15.37020646609029 25.512764929173414 0 0 0 2.107898056349812 35 4356 74 4335 41 3712
13815 -39.780455393695277 39.211407237244387 31.581802471811468 64 75 81 1.8547982077494549 26 4854 134 4698 132 3909
13814 -21.903802090913164 15.95058435016777 28.15072866919331 0 0 0 3.1956341045566843 35 4006 74 4086
13813 -21.903802090913164 15.95058435016777 28.15072866919331 0 0 0 3.1956341045566843 35 4005 74 4085
13812 -21.428817605162013 15.412045370843167 27.912152735765098 0 0 0 1.0500962639971869 74 4081 67 3772 78 5291
13799 -10.103016911488616 13.377483612361724 3.1544543742444042 58 62 65 1.4186937999744214 134 4550 132 3385 133 3002 89 4227
13796 -15.363279576255726 18.784800264332869 5.9627817978815241 98 94 91 2.2995987611369455 134 4060 132 3325 133 2950
13794 -15.287748271702808 19.481271087317481 10.211551723016319 83 92 87 1.3291650355519313 67 4037 134 3964 132 3243
13793 -13.584344657245543 16.66824917400719 10.63080812470765 94 108 108 1.3714414455616015 67 4005 132 3221 48 5556
13792 -12.226369385337192 11.274908105942101 20.692264257308945 134 101 91 1.7258891365169304 130 4307 132 2994 58 3358 137 3417 140 2323
13791 -12.340572071241503 6.8478186460780046 20.221486889810429 15 22 15 2.1035416105340778 73 3932 74 3566 132 2927
13790 -13.724663709307547 10.7810605940643 25.785787146734336 23 27 28 0.45497958888714912 134 3545 132 2913
13789 -10.69079561081794 6.7813149407675573 20.12567969558938 10 18 7 1.8686934705846587 74 4032 134 4195 132 2912 78 5215
13788 -8.5412688377135613 11.562188783153225 0.52649075222829689 91 119 143 1.1857705186574894 55 3071 65 3025 133 2129 96 3764 79 3582 86 3062 80 2684 87 2643
13786 -8.4457395118461278 11.87584977993404 4.2055528326741047 1 3 2 1.0680310899872312 130 4050 134 3305 132 2614
13785 -9.6986939752872416 13.305926469309668 5.4732549595596973 21 20 18 1.9726513088953606 64 3365 65 2775 89 4176 86 2769 79 3321
13784 -12.892667309200197 15.122825704989754 10.486623916481909 37 35 20 0.39832035960681023 134 3051 132 2384
13783 -12.917832898401929 15.62820391647673 11.157352595927092 119 132 138 1.3885988875564461 67 3471 130 3828 132 2362
13782 -40.865609861629558 39.731389611660006 28.755974948580022 72 81 88 1.6405453726636987 130 3809 140 3465 132 2301
13781 -39.578342603508005 38.592894245560309 28.04936122599841 0 0 0 1.0753448504276097 28 2606 67 1323 74 1007
13779 -21.429762943058162 20.393517108848958 22.202810669399295 180 188 190 1.8076253232819008 74 775 130 3663 132 2189
13778 -17.390706796480632 14.538641460515246 23.713922461862101 41 42 36 1.5284756509592037 73 3491 74 3000 132 2039 78 4744
13777 -15.962035162867567 15.217069613988725 24.016779448901055 38 38 38 1.8420254324787655 73 2606 74 1987 132 2038 78 3753
13775 -16.729061755729912 15.102768131316802 24.744448354312262 1 5 4 1.9357971211857843 73 2594 132 2028 78 3736 74 1967
13774 -15.838326837698173 14.801924276583067 24.311431951548538 111 117 113 1.6847745111718144 73 2589 132 2025 78 4735
13773 -21.076442904235531 16.660382392368209 27.599171182216399 201 202 197 2.2194988687532522 58 1013 130 2145 132 2021 57 1381 131 1278
13772 -6.8268212162366506 4.7110536986502618 15.186037923209255 48 44 32 1.5189753805241504 67 3680 132 1938 68 4220
13769 -16.309926191129946 19.342791825675299 6.3077275554855579 0 0 0 0.96270511923104585 40 5572 55 2104
13766 -15.184547510183739 17.460670713306108 10.993485725232199 86 22 20 1.7696538395997383 134 1602 140 2776 132 1006
13762 -17.378588062146044 14.059809766586605 25.341641501476911 163 167 153 0.95662808438922631 73 2560 132 315
13761 -13.355413669684479 10.579567445511355 25.528105153177197 179 185 185 0.4632227489059601 64 217 67 426 132 101
13760 -14.089807601406019 10.223814489003773 25.805461343640406 38 34 33 1.1074680231105871 134 476 132 81 73 921
13759 -13.415013022679618 10.209924953994486 25.721563782531998 5 5 8 1.8800236699826616 73 909 132 74 134 2451 78 3445
13757 -16.954824150789126 13.356759575422213 25.356870793097364 141 148 154 1.5045422948794929 64 3845 67 4141 73 4343 134 4633 68 4629 130 4815 57 3769 37 4882 147 3823 6 3972 47 4269
13756 -39.390601838645388 38.451892994313226 27.715011652228533 163 168 167 1.6345298109728541 28 4199 67 4248 58 4403 64 3641 48 5884 130 4963 35 4179 55 3751 134 4708 74 4182 132 3917
13755 -20.95269515181484 14.86323143837477 28.378280724772036 157 158 155 2.6161310377936844 40 6101 58 4541 26 5237 28 4304 67 4377 29 4383 64 4110
