# 3D point list with one line of data per point:
#   POINT3D_ID, X, Y, Z, R, G, B, ERROR, TRACK[] as (IMAGE_ID, POINT2D_IDX)
# Number of points: 335, mean track length: 7.8742919893653909
21160 -1.4795716784923991 0.27399261700990851 -4.7818753162715302 45 42 23 0.48560948600603576 12 2388 11 4368 10 1775 9 273 8 253
21161 -1.180135835615659 0.27528916686650767 -4.9035006253023141 221 181 123 0.31756602050403127 12 1729 13 2610 11 4377 10 284 9 282
21162 -1.3409608361795755 0.28193108210174783 -5.0246326276498721 140 132 115 0.82715786951191606 12 2733 11 4429 10 342
21164 -1.0668093952403936 0.2862121756053369 -5.0873621329316787 141 128 111 0.1120645000240289 12 2440 11 4435 10 344
21167 -1.3658492976439069 0.28302484954571117 -5.0267071090963267 136 125 106 0.36182373143182317 12 2442 11 4440 10 346
21168 -1.2743285350584481 0.28380831436768916 -5.1173785276045747 146 131 110 0.34041892101403443 12 2455 11 4462 10 376
21169 -1.236737108579417 0.28416734847011882 -5.1298080576982379 166 108 58 0.14732333751383131 12 2457 11 4463 10 378
21170 -1.2696661274106087 0.2843059934224727 -5.1251059177613874 109 96 77 0.16756228160280676 12 2459 11 4467 10 383
21171 -1.1382196262445805 0.28794552030985177 -5.1646168193046487 155 138 120 0.14475414517763005 12 2747 11 4480 10 392
21172 -1.3505097983212773 0.28507612463492293 -5.1243833246498518 146 130 114 0.30601389300709214 12 2469 11 4484 10 394
21174 -1.0804850752688844 0.29105561064253344 -5.2003552067664778 118 102 87 0.42358028941879805 12 2479 11 4504 10 408
21176 -1.2410340813717635 0.28706487584135032 -5.2021131140816754 110 98 82 0.39837958294010173 12 2775 11 4538 10 435
21177 -1.2646801802969789 0.28722928975630502 -5.2132627146529265 132 118 91 0.89912759043711021 12 2783 11 4552 10 454
21178 -1.272566439374049 0.28749531702438336 -5.2301167538746443 160 139 121 0.27906421639394263 12 2531 11 4572 10 474
21179 -1.2463033058701325 0.28905533278208118 -5.2337462672087156 53 48 29 0.38969636736110191 12 2804 11 4576
21181 -1.257360494783901 0.28863498042330488 -5.2363439615442671 41 36 16 0.39406773761185626 12 2808 11 4583 10 489
21183 -1.2697000812811541 0.28864320969748802 -5.2352181602789782 59 37 19 0.49935792565286802 12 2810 11 4590
21189 -1.3768200954347618 0.28951797347622832 -5.233141354425821 134 121 106 0.19576374210971967 12 2831 11 4629 10 535
21190 -2.5693383938591028 -0.44450831730784751 2.6532620887657212 14 18 4 0.51765369029409503 13 1573 16 3660 11 4994 10 1539 9 2267 8 4012
21195 -0.62511568921432736 0.22996933842401254 -3.5938516158158098 179 158 132 0.32029626014472462 12 2294 13 2857 14 5394 15 2895 11 5067 10 1671 9 1631 8 4115 7 2686 6 2732 5 2554 4 2531
21205 -0.95248262431652542 0.25340964491623369 -4.3655027639346571 177 160 142 0.52943152730430743 12 2680 13 3055 14 5598 11 5097 10 2415 9 1652 8 4141 7 4045 6 2754 4 2543 1 157
21206 -1.2419694434355435 0.26276364517982953 -4.5329770836569869 149 133 117 1.2233448369175122 12 2352 13 2899 11 5113 10 1724 9 228 8 2818 7 221 6 216
21207 -1.4385294269823363 0.26314679043927758 -4.5913365626940879 74 90 27 0.41334841995953314 13 2904 11 5122 10 2429
21208 -0.81965309600004321 0.27398337783641552 -4.7387300151142009 56 56 22 0.40390939390730846 12 2699 11 5127 10 2432 9 2374
21209 -0.86898215771523935 0.28273916269737642 -4.9637546919212561 53 52 19 0.59088175200845527 13 3082 11 5143 10 2442 9 1704
21210 -0.87388536521823168 0.28509348643530363 -5.0011388092123905 51 57 11 0.54463088201252807 12 2717 11 5147 10 2444
21211 -1.3415241633131176 0.27845801323859243 -4.9606554324987888 137 121 105 0.26529836285252933 12 2722 11 5153 10 316
21212 -0.93299746620958457 0.28698153708800694 -5.0654526163182059 116 103 86 0.55888115734499344 12 2724 11 5158
21219 -1.1467650039458011 0.28790153430591714 -5.1666067030564147 124 115 98 0.70784216684349244 12 2749 11 5194 10 1831 9 345 8 316
21220 -1.1431739801968965 0.28810446172803095 -5.1674150093321529 111 98 79 1.1316810509820678 12 2750 11 5195 10 396
21221 -1.4076464091846632 1.4454741073769917 2.4203517070063003 0 0 0 2.7616576583357766 12 2757 18 3925
21223 -1.0799625356996727 0.29205923269179945 -5.2073657169021805 62 52 43 0.71402931606920872 12 2955 11 5205 10 1841
21225 -1.0538231684302612 0.29265882482709704 -5.2332615902275492 136 123 105 0.22139081031173094 12 2957 11 5211 10 438
21230 -1.4048699511368434 0.28874261011428259 -5.1958863384361083 140 127 110 0.85133566751916112 12 2972 11 5233 10 494
21231 -1.2977054690614453 0.2881915297226364 -5.2406780917782836 133 117 103 1.0331258654063444 12 2980 11 5246 10 1882
21233 -1.3502749593720322 0.28911363254930722 -5.2275902200093549 141 129 105 0.36185934538979719 12 2981 11 5259 10 518
21234 -1.1476656543066392 0.29331096310756816 -5.2775746808480113 132 124 105 0.55356114803000978 12 2986 11 5265 10 538
21235 -1.1083715421709355 0.29470228672352694 -5.2922274444909307 93 80 64 0.3817706507520871 12 2828 11 5272 10 554
21242 -0.86720522501539543 0.27617681887759982 -4.7863272887156008 119 103 87 0.57054913988700706 12 2702 11 5514 10 2781 9 2378 8 4180
21243 -1.4909367660241941 0.2719478291420086 -4.8150557810832684 61 79 21 0.99304850512177467 12 2939 11 5518 10 2440 9 1699
21244 -0.84266915709346457 0.28208503071089297 -4.9439575134131202 88 99 30 0.40192147378575316 12 2940 11 5519
21245 -1.5034709533085304 0.27642307716226661 -4.8781388632753435 46 46 19 0.6179417232212937 12 2942 11 5524 10 2445
21251 -1.2274937635188632 0.28952623237694142 -5.2456695802681947 60 51 37 0.56081987905010078 12 2979 11 5573 10 1878 9 393 8 2927 7 338
21254 -1.0860582595610708 0.29459606245159509 -5.2854481428802407 93 80 63 0.58987649206997961 12 3069 11 5576 10 1895
21256 -1.4483076307561558 0.28869674837065595 -5.21703370153298 103 95 76 1.1519756415417248 12 3070 11 5583 10 1905
21257 5.901064231996739 -2.4187015880403773 17.606514740427048 241 255 253 1.6211169072709815 12 2862 97 4209 98 4233 99 4160 101 4165 111 3699 117 3684 120 3653 121 3674 11 5625 10 2910 9 2808 8 5292 7 5163 6 5129 5 4830 4 5000 3 2472 2 2498 1 4819
21258 8.1818117966524007 -0.51651228456597464 6.8697909703656865 21 27 13 0.87580145992250669 14 5562 18 4312 11 5650 19 4293 6 5152 10 3036 3 2494 1 4844
21260 -1.2463318491550088 0.033957386236169278 0.61389608683361119 0 0 0 1.2630124700383341 12 3026 34 4921 35 2956
21262 -1.4565980682926147 0.2533010596787762 -4.4416704290443878 80 107 26 0.72208274924655691 12 2920 11 5674 10 2959 7 5050 6 4676 4 4596 3 2374 2 2396
21263 -1.4969574476752205 0.26918017627428187 -4.7785565114724564 49 56 15 0.34505219004132814 12 2935 11 5680 10 2783 9 2684
21264 -1.1519960216560265 0.2882686150802995 -5.1695594546428714 62 52 50 0.72400124223785101 12 3059 11 5696 10 2812
21265 -1.1519960216560265 0.2882686150802995 -5.1695594546428714 62 52 50 0.72400124223785101 12 3060 11 5697 10 2811
21267 -1.2013447877497061 0.28932501205603905 -5.245422806146407 125 113 97 0.47710295527910523 12 3123 11 5709 10 2826
21268 -1.1729073196048003 0.29242816260291782 -5.2780383805526325 130 116 99 0.72119331009703425 12 3125 11 5714 10 2521 9 1787
21270 -0.89132123436001787 0.28684068128759482 -5.067740509991153 51 51 17 0.53357007309791993 12 3051 11 5763 10 2971 9 2865 8 5175 7 5061 6 4693 5 4610 4 3927 3 1495 2 1442
21271 -0.91006658362762438 0.28599024870751061 -5.118694723549523 52 61 18 0.60077994699360315 12 3110 11 5764 10 3057
21274 -1.2219178733850173 0.28834174412968111 -5.216976819413377 117 105 81 1.0098363926799616 12 3180 11 5774 10 2821 9 2415 7 2791 6 281
21275 -1.1631842552318137 0.29065213774565657 -5.2393280320058189 126 110 88 1.1876321397356353 12 3120 11 5777 10 2823
21278 -1.1638332002010778 0.2912682904842247 -5.2546803106117972 53 47 45 1.4752347785195041 12 3182 11 5829 10 3064
21279 -1.1650966611590454 0.28961140903305099 -5.2613953177420933 53 47 45 1.2528619447515108 10 3063 9 2872 8 5192 7 5067 6 4717 5 4615 4 3944 3 203 2 182 1 201
21283 -1.1225379306238541 0.28675664283552699 -5.1130799272245335 138 122 97 1.5387032144045574 12 3203 11 5886 10 3116 9 2973 8 5420
21295 -1.274253471193413 0.28984684683836448 -5.2410970192536395 149 143 121 0.23180413885274723 12 2824 11 4609
21304 -0.51478902421781525 -0.43636490573494069 6.266584242034785 32 32 24 1.3244919688888936 12 1446 19 81 22 2092 24 96 25 76 10 66
21305 -1.5091629449378909 -0.056829175516288438 0.51030749509595763 7 12 0 0.9817389109184802 14 78 27 4423 28 4517 10 86 29 1929 9 101 8 2692 7 97 6 2670 5 87
21308 0.59801208152214536 0.259499758702262 -1.6418563788077734 116 130 53 0.27893932877230043 17 203 10 153
21311 -0.14442446305651996 0.28746507778370967 -4.2112991489169831 212 191 144 0.4588385608191653 11 2797 10 188 8 203 7 224 6 222
21312 -0.8895225920848524 0.27213075018716326 -4.7022547393567891 139 122 100 0.42370068788260523 11 4333 12 1660 10 237
21314 -0.87219087384325311 0.28423062246074571 -4.9828712085867375 60 60 24 0.27559324024368753 11 4384 10 294 9 292
21316 -1.2217151348389526 0.28210171584926175 -5.0681341845056034 107 70 44 0.088663387313464723 11 4439 12 2444 10 340
21317 -1.3624218185894401 0.28214153747404697 -5.0473511941125375 84 71 56 0.4022027069938699 11 4442 10 347 8 290
21319 -1.0757731804216353 0.29018684951819257 -5.1996883546329951 117 104 89 0.41740771205508004 12 2755 10 405 9 352
21324 -1.2754420577250576 0.28859460863453845 -5.2378842556565637 56 48 35 0.72233781905614725 11 5241 10 496 8 352
21326 -1.288748004668423 0.29444850991490823 -5.371151492611709 109 95 79 0.23834522497817245 11 5357 10 723
21336 -0.80756304848042615 0.2603752100363092 -4.3627015952434407 170 152 134 0.56586751694469917 11 4280 12 2332 10 1697 9 194 8 2797 7 2715 5 167 9 1658
21338 -1.3464668119001886 0.25736123870714994 -4.4291214545968245 135 123 101 0.60261585950188867 11 5104 12 2686 10 1708 13 3061 9 1662
21340 -1.3203444867472871 0.26394161007300315 -4.5447307580431611 102 92 76 1.0610421859086414 11 5116 12 2697 10 1736 13 3066 8 2822 9 1672 7 228
21344 -0.87220036433214476 0.28780699287170319 -5.1392311521341796 64 74 14 1.2129996990720426 11 4420 10 1798 9 1720 8 2876
21345 -1.3678484106991287 0.28351843227422802 -5.0776899719232995 144 128 113 0.39824992436507833 11 5177 10 1821 9 331 8 2891 7 297
21346 -1.5181996280705103 0.28476127393271561 -5.0743335093176292 104 94 82 0.71789696632880939 11 5548 10 1827 8 306
21347 -1.3851562959510655 0.28537786159564626 -5.1372077858959315 72 65 49 0.1362028125993259 11 5196 10 1835 9 351
21348 -1.1133443502078797 0.29166356686136152 -5.2369048670828562 151 138 119 0.52258853204023947 11 5560 10 1861 9 374 8 339
21349 -1.4688379247039527 0.28785083712602449 -5.1718719255709598 125 118 98 0.48062526656765081 11 5563 10 1864 9 381 8 341
21354 -1.2894624805512382 0.28870783887819135 -5.2485932378450073 43 33 23 0.58573461547052608 11 5580 10 1893 9 406 8 365
21356 -1.1343372731969623 0.29338688228815291 -5.2717751426297266 140 133 120 0.28598824182206373 11 5256 10 1900 9 416 8 399
21357 -1.0735914593292242 0.29645664456852966 -5.3395410480143468 134 117 99 0.40514004375353441 11 5302 10 1923 9 440
21358 -1.3464564908987766 0.29099476112271727 -5.2945043717820015 108 96 78 0.31555037918238366 11 5308 10 1931 9 444
21359 -1.2911021539025713 0.2920013923175559 -5.3235965500645293 122 101 74 0.31141629088534456 11 5319 10 1944 8 445
21360 -1.3007787843065926 0.29173944656155287 -5.3267549360831916 121 108 89 0.44887439622431274 11 5324 10 1945 9 460
21365 -1.2950268044721402 0.29589583476661824 -5.3733035387526709 216 154 97 0.74260299740389613 11 5375 10 1977 9 505 8 492 7 408 9 1837
21366 -1.4320626352578059 -0.061992488108476324 0.27683774404960232 0 0 0 0.76615544459537555 12 2260 13 2827 14 5359 15 2666 16 4925 17 4011 19 3802 18 3705
21367 7.6224499942755957 -0.23236632112233827 7.2137095433224179 67 85 37 0.90935386502756543 17 4021 21 4294 22 4374 10 2367 20 3915 24 4080 9 2323 8 4788 7 4731
21368 8.109346643795746 -0.079850754258743342 9.1473398267661228 0 0 0 0.99403061802176984 18 4111 28 4182
21369 -0.77963950629146384 0.16226355187762012 -1.7351571193502637 89 109 33 1.3826839258021546 22 4716 10 2384 9 2340 7 4021
21371 -0.082621131225661393 0.27220851927878825 -4.0363522529417271 235 212 162 0.96246529934594172 11 5091 12 2313 10 2409 8 4138 7 2710
21372 -0.74380018175771545 0.25987436647808304 -4.4015386291289893 75 79 25 0.68239224183255776 12 2334 10 2417 9 1656 8 4146 7 4049 6 4032 5 2572 4 2549
16289 -0.45411275486798452 0.14186728230055937 -1.3777873101986755 141 130 109 0.23190474989879775 40 3607 39 2529 38 453
21376 -1.528929788357174 0.27189708547979474 -4.8594401577435562 80 100 29 0.63930467533957003 11 5520 10 2441 9 1702
16290 -0.16685502327012991 0.14827184259459367 -1.4548909092385058 180 161 136 0.25527768461715394 40 3615 39 2539 38 461
6017 0.7326600449395142 -0.061581707312685474 3.9890977525654328 93 116 34 0.19064964293419048 98 1933 99 1914 100 3153
21377 -0.90395088679002189 0.28579222503486151 -5.066434999783465 113 97 74 0.41019488509737267 11 5529 10 2449 9 1716 8 2867 7 2769 6 254
16291 -0.35133796763113856 0.14224402397029734 -1.4422352292331688 253 217 142 0.18656434671756117 40 3672 39 2576 38 2413
21378 -1.2072998777735835 0.28265291952767746 -5.033456370684136 123 104 88 1.3184970532032025 11 5165 12 2729 10 2456 7 2772 6 2793 5 2614 4 2588 1 189
16292 -0.35053361842703257 0.14292333240946223 -1.4386214165249718 253 217 142 0.69271632670777561 40 3671 39 2577 38 2414 37 387 36 368
21379 -0.91156170872953712 0.29148093556025112 -5.1290859604483279 129 112 94 0.57466332926471775 11 5172 10 2461 9 2396
16295 -0.25833366988533257 0.14705726336432076 -1.485898966987258 157 142 124 0.27491133653642413 40 4151 39 2632 38 510
21382 -1.3718825865235278 0.28360933907517127 -5.0697016104007844 75 61 48 0.35816254755652865 11 5546 10 2468 8 2889 7 295 6 263 5 212
16297 10.02846662817109 -1.5893008783772768 17.238355132252504 222 236 246 1.6144390842641887 115 3351 12 2218 11 4996
21384 -1.0168442462752534 0.29340503825680736 -5.2490312159033268 123 111 89 0.23561471055115701 11 5558 10 2490 9 369
16298 -0.59271924550315747 -0.40422908854711548 5.9701549289958322 31 36 16 0.9033748314708947 42 3249 46 2112 47 3134 39 3437 38 100 37 2229 35 80 32 101
21385 -1.1267605486301036 0.29149286443440292 -5.2373655080974828 147 129 111 0.63228214757255652 11 5562 10 2495 9 1764 8 2919 7 327
16299 8.1993754444166971 -0.37371071201315625 7.7738463253217462 38 40 33 0.96149787529145736 40 3259 44 3153 39 3446 38 3360 41 3634 36 4284 35 2035 34 4016 33 4145 32 4086 30 4224 28 4149 27 4027 26 3319 25 3781 24 3741 23 3836 22 3984 21 3266 20 3259 19 3807 18 3710 17 4015 16 4533 14 4995 3 1428
21386 -1.3988996034239967 0.28441944968790955 -5.2155196766428249 76 66 54 1.4290609358022011 11 5226 10 2497 8 4215 7 2788 6 2809 5 221
21388 -1.2125051417761101 0.28944554970522007 -5.2360996732150458 137 120 104 1.2541858031571007 12 3122 10 2501 9 1765
16302 0.78871281039853958 -0.03052596989640749 3.444248062755551 169 155 142 1.4597636899697233 40 3289 94 5186 36 3615 35 1381 33 2244 38 2135 32 2187 31 129 30 2295 29 117 28 2224 27 142 25 2111 24 2089 23 2154 21 129 19 133 18 121 17 2163 16 122 11 119 8 106 7 124
21389 -1.1875369557698459 0.28930657345349564 -5.254487169753288 130 117 98 0.92132750377350847 11 5236 10 2504 9 1766 8 349
16303 -1.660522565631116 0.02947164095695845 3.933684100626786 9 21 0 0.559527338145409 42 3325 44 3831 39 3504 37 3562 36 3634 35 170 34 2259 33 2272
21390 -0.99925370971842808 0.29473929726282716 -5.301538892327466 119 106 90 0.91027652561129579 11 5707 10 2506 9 396 8 381
16306 -0.32527080226380722 0.1224999709253278 -0.85258676750331652 163 148 127 0.39154219667608442 40 3967 41 4012 39 3548 38 2238 37 252
6033 -0.07341476915796831 -0.6235596993685345 5.9308923004045662 104 127 111 0.38742653605798133 98 2663 99 2656 97 2668
21393 -1.0504254271090268 0.2943850659225587 -5.2885656815181914 120 108 92 0.501504185718332 11 5711 10 2514 9 1780 8 394
16307 -0.32527080226380722 0.1224999709253278 -0.85258676750331652 163 148 127 0.39154219667608442 40 3966 41 4011 39 3549 38 2239 37 253
21394 -1.3989768125530173 0.29056950957415101 -5.2383585687125693 60 49 40 0.39915311769718326 11 5587 10 2527 9 430 8 414
16308 0.15637188365635268 0.13222098914707159 -1.1015313854175197 75 75 16 1.2998941973535301 40 2249 39 3562 38 273 37 2384 36 2375 34 248
6035 -0.024580838327323877 -0.61034357691088659 5.947326798601817 32 30 23 0.76264076948295945 98 1594 99 2663 97 1611 96 71 95 66 94 73 93 62
21395 -1.1476116915060746 0.29494527407064708 -5.3091006189638952 144 128 105 0.20287785548475509 11 5590 10 2534 9 1803
16309 -0.65755148062696245 0.12337892312279505 -0.91332054178573618 26 29 8 0.20402489656901898 40 3391 39 3573 38 2253
6036 -0.13539535677859679 -0.60080773354277095 5.9245771334428499 71 88 80 0.61682331835598914 98 2669 99 2665 97 2678 96 2997 95 1930 94 2293
21396 -1.2249581310555857 0.29281166738502995 -5.3326093892486224 134 121 102 0.42631497364451737 11 5726 10 2541 9 1810 8 442 7 385
16314 -0.39818191050002649 0.13195499931027971 -1.1375620033171476 84 68 53 0.28246024397239339 40 4010 39 3597 38 2285 37 294 36 294
6041 -0.087679167509978534 -0.60073121687408937 5.9895080224830535 25 21 20 1.2872303108452925 101 2575 99 2676 97 2688 95 1939 93 69 91 67
21401 -2.7956589562018639 -0.6494482599741318 3.291670742151541 39 49 24 0.81229969279160874 12 2613 14 5321 10 2712 11 5425 13 2792 15 2621 9 2608
16316 -0.042345324964059072 0.1410604634011986 -1.2972462766101152 75 95 26 0.52658882280098884 40 4329 39 3616 38 3481
6043 -0.056042648799311631 -0.59509680224762107 5.9838216691848327 220 255 254 0.20458421024618176 98 1603 99 2678 97 1625
21403 -1.6060192704472656 0.17622789386585808 -3.1805550069017747 87 113 39 1.5397059717222772 12 2913 10 2767 6 4009
16319 -0.32724141489453618 0.13599962408578448 -1.3492133563968776 148 123 105 1.0676524430160306 40 4064 41 3855 39 3659 38 378 37 342
6046 -0.00094501468351310667 -0.59576218578340456 6.0389842361352937 25 20 12 0.72447689035329643 101 2579 99 2682 97 1627 96 1837 100 1809
21406 -0.86582374817646857 0.26799041497672432 -4.6350141201925172 118 102 82 0.65369671663000872 11 5502 12 2924 10 2776 7 4062 5 182 4 2567
16320 -0.3632371758734616 0.13759065594605466 -1.3409064682642167 125 113 99 0.44072799894278941 40 4352 39 3661 38 2354
6047 -0.10770831796433898 -0.58483375384185965 6.0158968205543415 74 65 66 0.43338072391741617 98 2682 99 2684 97 1633 96 3016 100 2877
21407 -1.1403716919271516 0.26676238744589359 -4.7103950879958711 226 167 104 0.43743706935520332 11 5510 12 2930 13 3147 10 2778 9 2372 8 4832 7 4066 6 4049
16323 -0.45865853217985442 0.13987176373721055 -1.3953366152186291 68 61 43 0.15832207793906983 40 3623 39 3706
21410 -0.92578229560232439 0.29305195294250352 -5.1821662118464022 115 103 82 0.49792117324036289 11 5692 10 2805 9 2699 8 4860
16324 -0.35178973321480206 0.1408133108927524 -1.4394694667133037 142 107 75 0.40235190159819167 40 4116 39 3722 38 2398 37 2472 36 362
21411 -0.92729852816500236 0.29222644360415373 -5.2101351813782317 52 55 19 0.71228881150256917 11 5769 10 2807 9 2405 8 4863
16325 -0.35162971940867832 0.14091853730997783 -1.4389408080904929 142 107 75 0.19445194044469391 40 4117 39 3723 38 2399
21412 -0.93447228686461181 0.2943884050379767 -5.2118832805325672 120 106 87 0.15357571008465531 11 5693 10 2808 9 2407
16330 -0.27291986082615727 0.14749654295632925 -1.5119029520413851 149 137 123 0.53016398548377952 40 4405 39 3803 38 2483
6057 -0.16540332521834927 -0.4279746525072039 6.0336814415326003 17 26 5 0.34321299692795648 98 2754 99 2741 97 3424
21417 -1.1289809392514403 0.29174564688683341 -5.2654827672546993 48 39 30 0.56571438100046323 11 5710 10 2830 8 4225
16331 -0.86488016814696289 -0.81277628906801536 5.9309581623340009 27 34 18 1.0453987617603224 47 4021 39 4094 30 4176 29 1879 19 3095 18 3040 17 3257 16 3649 15 1487 14 4102 11 4111 10 1532 8 2609 7 2551 4 3797 3 1376 2 16 1 3727
21418 -1.1529530455843826 0.29219445802808197 -5.2665681678634551 88 74 64 0.35145825764099475 11 5781 10 2834 9 1777 8 4231 7 350 6 296
16333 10.121382601320766 -1.5906494541240224 17.108532225343112 219 230 242 0.91812338676726102 120 3354 39 4105 33 4105
6060 0.18585532684528663 -0.42619469582687086 6.1450397386931508 164 179 182 0.46181471324357043 98 2764 101 1628 99 2750 97 2754 96 3072 95 2005 94 2373 93 2373 92 2415 91 2503 90 2538 89 154 87 2495 100 2947
21420 -1.3477565530082753 0.29031335739838643 -5.2620225347661966 140 125 104 0.63388174510286244 11 5717 10 2843 9 1795 8 2948 7 370
16334 -1.2565606616688114 -0.0051938870322256045 4.494040355956785 18 26 5 0.57019486479542714 46 4448 39 4170 24 3192
6061 0.021539197725601245 -0.38922929399774558 5.9145457311825282 199 227 229 1.4715561470484162 98 3453 97 3434 96 4245 95 4069 99 2752 94 4687 93 5038 100 2949
21421 -1.2825223547543363 0.28882065494017989 -5.3013808238889473 241 172 110 1.6292341489659505 11 5719 10 2844 9 2433 8 4890 7 4130 6 4112 5 3988
16339 0.15150707493547216 0.1402293960018437 -1.108489249781822 57 57 23 1.0947990986175689 40 4307 39 4211 38 3460 37 2394 36 286
21426 3.3730713375893613 0.032555280300809154 3.5374303508452614 0 0 0 0.03301072201317265 13 3131 44 4474
16340 -0.20497829048680108 0.13182388866711972 -1.1144128657350441 66 53 44 0.59109572406805211 40 4316 41 4030 39 4219 38 4074 37 3610 35 216 34 2289 32 236
21427 -0.59412150586760937 0.22931284431208857 -3.6819864137466682 72 76 17 0.74192478067191792 11 5669 12 2915 13 3136 14 5684 10 2954 9 2850 8 5153 9 2657 7 5047 6 4671 5 4884 4 4591 3 2095 2 2078
16341 -0.03287220292339537 0.13881705892316118 -1.1667250326861949 108 96 80 1.4873505398621649 40 4317 39 4220 38 4076 37 4307 36 3674 35 224 34 2296 33 2300
21428 -0.91817824836107265 0.28941824195684357 -5.1189809153717754 116 99 83 0.21385657063290575 11 5765 10 2972 9 2693
16342 -0.55162024855188108 0.13214325995239445 -1.1220302634222017 38 36 11 0.053789272097566274 40 4325 39 4229
6069 -0.20771491188645272 -0.36934755365667121 6.2053174571693681 20 33 27 0.70448925143206353 98 1737 99 2780 97 1779 96 2004 95 213 94 237 93 2392 92 2433 91 2522
21429 -1.2333543124746777 0.28275256420962885 -5.0747137140164211 124 111 95 1.0722473555022949 11 5768 12 3112 10 2974 9 2694 8 4854 7 4783 6 4695 4 4614 3 1503 1 2510
16345 -0.047924460133934345 0.1432174575909653 -1.3698160268244941 98 102 41 0.61019089030899065 40 4344 39 4248 38 3495
6072 0.69971343338930758 -0.4454550902871432 7.0722181324403524 47 55 31 0.93080433123998285 98 2803 101 3372 102 3440 99 2790 97 2783 96 3098 95 2025 94 2396 93 2396 92 2437 90 201 89 191 88 118 86 2511 84 152 83 2517 82 2613 80 173 79 149 74 187 67 172 100 2973
21432 -1.1936574324957476 0.28862585180184297 -5.2455540555336713 123 107 91 0.84011331136236045 11 5776 10 2987 9 2419 8 4880 7 4114 5 231 6 284
16348 -0.091259164042239105 0.14830260115890126 -1.4403539852401237 49 36 27 1.4583643189499294 40 4359 39 4260 38 3524 37 2467 36 359
21435 -1.2975654251939155 0.29297878217213957 -5.362424501807828 234 158 96 0.57005554315123808 11 5790 10 2997 9 2729 8 4908 7 4829 6 4123 5 2663
16353 -0.17669734548910396 0.14819712175309482 -1.4624940060613705 70 76 16 0.38182337085605489 40 4373 39 4274 38 3536 37 2481 36 375
21440 -1.4093477884809804 0.2941569244317645 -5.243361521198052 138 126 100 2.2351342357438067 11 5833 10 3069 8 5198 5 2658 4 2628 3 224
16355 -0.26903210917199072 0.14567081693968648 -1.4727307032903385 161 146 127 0.20023817980345032 40 4386 39 4285 38 3548 37 2495
21442 -1.4084532521902751 0.24773704364745525 -4.3828381354391466 76 93 15 2.6483365040395928 12 3151 10 3097 7 5272 6 5231
16357 -0.35647657791560122 0.14276792680351214 -1.4726520965850933 118 101 85 0.47269193177919638 40 4389 39 4297 38 2436 37 408
21444 -1.4076813456945581 0.28873185962439785 -5.2411458974954668 74 63 56 0.66836695371390009 10 3101 9 2927 8 5352 7 5069 5 4616 4 3951 3 1512 2 188 1 2524
16358 -0.23005289219931335 0.14878302005715047 -1.5005797841703152 63 52 40 0.66311884211783112 40 4622 39 4301 38 2456 37 2521 36 407
6085 0.88181458343573971 -0.2478650059059099 7.5004187746921982 43 49 31 0.10676502395241298 102 2877 99 2853 94 2445 100 3719
21445 -2.4143823350674682 -0.69271303880694879 3.4295487311424444 206 243 251 1.7043883760679674 15 3083 9 2953 8 5453 7 5310 6 5268 6 5301 5 5134 5 5166 4 5091 3 2568 2 2580
16361 0.62411924629478777 0.027786106061247168 -0.5639371575932477 69 77 28 1.4000879448407668 41 3651 38 4382
21448 -0.89286404037218337 0.29065029884958843 -5.2120545097007493 89 100 34 0.98312783499700263 11 5858 10 3117 9 2974 8 5421
16365 -0.54223774076125286 0.13127058095720723 -1.0811646470660485 48 45 18 0.6138413743596951 40 4321 39 4528 38 4079 37 3613 36 3673 35 219 34 2294
6092 1.3526519552616505 -0.081213015773730995 4.8340896158855688 119 112 96 0.82731752481167964 103 3850 99 2894 101 3455
21452 -1.4805573482243739 0.27147869562170651 -4.8056855868690311 50 55 22 1.2922586539757064 11 5900 10 3151 9 3022 8 5511 7 5381 6 5318 5 5183 3 2625 2 2639 1 4961
16366 -0.18020255423295042 0.14442355005906699 -1.3776846578884712 120 107 89 0.22723825813517176 40 4355 39 4541 38 4093 37 3637
6093 1.27499267226832 -0.075207317668520082 4.4932361966503072 56 61 23 0.90900583858897688 102 3538 111 3518 99 2900 100 3770 101 3459
21453 -1.3635882016801906 0.28548076101521114 -5.1205076237070406 134 117 96 2.3579005996559008 11 5917 10 3163 9 3023 8 5513 7 5335
16369 -0.19734441785135517 0.14813404745513273 -1.4763242793221856 52 42 33 0.91605479999000605 40 4613 39 4557 38 4113 37 2497 36 388
6096 1.2393097500567924 -0.070561605388214196 4.300741699665708 61 84 12 0.83340296054568663 98 2918 101 3466 99 2907 97 2913 102 3921 96 399 100 3775
21456 -1.1032441552637458 0.29290149996033515 -4.7967944720173081 117 104 87 2.1555588308354716 11 5926 12 3232 9 3068 7 5420 6 5370 4 5234
16371 -0.26810174936651554 0.14508436678015957 -1.4775414506615852 68 58 46 0.62408165794850801 40 4514 39 4561 38 4116 37 3663 36 2447 35 263 34 305 33 283
21458 -3.6454654365597348 -1.2862100735010689 21.046058218674858 17 22 9 3.2710993466005873 33 5036 10 3186
16372 -0.26721713082946791 0.14553975007906314 -1.4754731699837702 68 58 46 0.20456373181388829 40 4515 39 4562 38 4117
21459 7.7107298350744564 -0.45973102204115529 8.7300141952838146 39 46 35 0.79998633858984336 16 3723 17 3320 22 3313 15 1548 33 133 14 4164 10 1577 33 4139 35 2033 36 4277 29 1921 27 4021 26 3970 25 3778 52 4437 51 4482 53 4224 24 3739 23 3834 22 3314 21 3930 20 3904 19 3803 18 3706 17 3321 16 3724 15 1547 14 4165 13 2424 13 2425 12 2254 12 2255 11 5034 10 1576 9 1559 9 1560 8 4050 8 4051 7 3970 7 3971 6 3968 6 3969 5 3854 5 3855 4 3846 4 3847 3 1424 3 1425 2 1380 2 1381 1 3786 1 3787
16373 -0.22176541079155265 0.14789588153570324 -1.4862008548508641 153 132 115 0.53372439012995943 40 4666 39 4564 38 4119 37 2502 36 397
6100 0.80603303853453834 -0.072238009819003871 4.254270277179776 60 69 24 0.9468279089263818 101 3474 99 2921 97 2917 95 2128 93 2510 94 2500 92 317 100 3098
21460 -0.19620394447409031 0.16406588863528654 -1.8420793634476773 103 92 74 1.7193520439325907 17 3379 34 4899 10 135 32 4968 31 2760 30 4795 29 2542 28 4554 27 4094 26 4029 25 3289 24 3210 23 3289 22 2178 21 2138 8 136
16374 -0.47721614296932813 0.14450393437314751 -1.4478689007513437 61 55 43 0.12690436203702987 40 4518 39 4570 38 3568 37 3673
21461 -1.4567446209425652 -0.1145642709918388 0.53841376451786038 42 48 28 1.3545038834646503 19 3131 25 3216 16 3698 26 3960 15 1532 31 2505 14 2710 10 72 22 3306 30 4212 17 3303 21 2043 23 3207 11 73 20 2091 9 80 20 3237 8 2680 6 2648 5 66 4 67 1 69
16375 -0.47722949564973705 0.14452162519411821 -1.447748142789959 61 55 43 0.099325735287877956 40 4519 39 4571 38 3569
21462 -1.2561492079178114 0.03843269248016809 0.63347561127243646 33 41 19 0.70327755978649087 15 1588 16 4549 17 4033 18 3126 13 1670 11 4217 10 2375 24 3768 25 4373 26 4326 23 4207 8 2728
16376 -1.1731100122116547 -0.51496879388038741 5.0915522850106578 43 45 31 1.2324076525915575 46 4596 39 4650 45 4449 38 4351 39 4456 40 4234 37 4545 36 4620 36 4850 35 2403 34 4398 33 4482 32 4484 32 4768 30 4557 25 4136 24 4053 22 4341 18 4065 17 4350 16 4901 14 5336 13 2804 11 5442 10 2728 9 2284 8 5113 7 4695 6 4604 5 4544 3 1395 2 1346 1 3758
21463 -0.96798575127331454 0.28689076415165332 -5.0758732123521302 44 38 30 1.2302709509806558 11 4418 10 1797 13 2950 12 2425 9 316
16377 -1.5280255998802976 0.049043898879064948 3.7089709490884677 57 75 25 1.2487192307861239 43 4326 44 4317 39 4677 38 4050
21464 2.3191292866986299 2.0556646370906404 10.681179441216177 130 107 82 0.12706525637038957 101 1056 10 583
16378 0.045532038986516712 0.12828319498431573 -0.81195263810152851 140 124 101 1.3824525600832163 43 4662 39 4685 33 3519 29 157
21465 -1.1170492558067568 0.27001664065050646 -4.6694862315293477 133 115 101 1.4562670701554155 12 3154 13 3254 10 3098 9 2924 8 5419 7 5205 6 5169 4 4905 3 2377 2 2400 1 4743
16382 -0.25404732579713507 0.14364493484408764 -1.4241544925099991 57 48 38 0.47961184907077042 40 4611 39 4711 38 4439 37 4323 36 3691 35 1447 34 3451 33 2313 32 2249 31 187 30 222 28 199
6109 0.70288504722421574 -0.058336051113046322 3.9185776367654088 23 39 2 0.27392349510852432 98 2960 99 2972 97 1941
21469 -1.4347830609959478 -0.1344314082628689 0.43271900933738594 53 61 39 0.96294542134594008 10 67 14 4142 15 1522 9 67 5 58
16383 -0.25404732579713507 0.14364493484408764 -1.4241544925099991 57 48 38 0.47961184907077042 40 4612 39 4712 38 4440 37 4324 36 3692 35 1448 34 3452 33 2314 32 2250 31 188 30 223 28 200
21470 8.9329706072579977 -0.52917646095720716 8.2832563013802378 53 55 62 0.063927514580767314 24 2046 9 77
11197 0.40647180990796827 0.022103207564617436 1.7419821958218744 128 105 87 0.39225936786070142 71 5345 69 2616 68 401
21471 -1.4554780600825987 -0.11315439631481894 0.52475693159695957 49 52 40 1.1544772229326563 10 71 12 66 13 76 23 3208 24 3146 9 79 8 2679 6 2649 5 67 25 3215 4 66 1 70
11198 0.20258096916241314 0.023381876239517509 1.8018933007476758 113 105 85 0.3185105300926363 71 4582 69 2626
16387 -0.54288877209157049 0.1332196221068675 -1.166412236169674 108 99 82 0.32899967437977107 40 4656 39 4809
21474 5.7815872554643759 -0.43032141277735853 14.201065411204942 42 54 50 0.71334761129346103 11 99 99 3451 9 120 3 101 2 96 1 2430
16388 -0.26411784101683405 0.1454862217735586 -1.444047800091681 165 150 132 0.38629060995841752 40 4663 39 4818 38 4624
6115 -0.091470117989167987 -0.68971134053586647 6.0332461907485255 53 71 60 0.80719312451475089 98 3377 99 3323 97 3367 96 3732 95 3041 94 3566 93 3649 92 3672 91 3743 90 3837 89 3807 88 1437 87 2406 86 2408 85 15 84 19 83 2402 82 2517 81 26 80 2522 79 43 78 2486 77 58 76 2566 75 2463 74 2661 72 2539 71 2755 68 2287 66 2422 65 63 64 2247 61 46 60 49 100 3576
21475 3.9475458610134178 -0.10399751105797735 4.5449930530944886 0 0 0 0.22889795729977597 52 173 63 2314
11202 0.33440472473424826 0.032955897162423468 1.5068533990715591 110 100 90 0.30364492129841653 70 1878 69 2787 68 569
16389 -0.13255036366339501 0.15005226244837677 -1.4852467301106638 41 35 31 0.38852162031475851 40 4662 39 4819 38 4625 37 4623 36 3700 34 2321 33 288
6116 -0.11369010631835205 -0.67993799120388154 6.0332958812588551 239 255 255 1.1488688586236002 98 3380 99 3327 97 3369 96 3734 95 3043 94 2279 92 2337 91 2424 90 2458 89 23 82 48 77 65 75 60 72 73 89 3809 71 79 42 49 41 43 100 3580
21476 0.20399198199455726 0.22538775916898771 -3.0743747393111107 59 73 18 0.62894866871733002 10 145 11 2728 9 162 12 160 13 182 14 2818 15 1627 16 3797 17 3404 18 3764
930 0.94750011084883767 -0.51331222694653567 7.8081014873588401 254 250 241 0.48559909845205679 101 1663 103 1683 102 1800 104 1422 105 174 106 1570 107 257 108 2521 98 1752 109 1446 99 1726 97 268 96 2013 95 217 94 245 93 219 92 208 90 199 89 190 86 177 75 180 71 207 65 180 56 134 100 1968
11203 0.31663362041346177 0.033482130208839153 1.5069784930289771 92 82 72 0.79594200252799407 70 2441 69 2807 68 583
16391 -1.7973416612245092 -0.77111505184071871 5.4066353924905011 222 254 249 2.0012947575195819 39 4852 38 4776 37 4957 36 5078 35 2875 35 2920 38 4818 34 4833 33 4843 30 4729 31 2685 32 4757 29 2484 29 2697 28 4861 27 4707 26 4619 25 4474 24 4246 23 4148 22 4324 21 4246 20 4249 19 3758 18 3664 17 3969 4 4519
21478 -0.18703958601415496 0.29436330594633836 -4.3542920335305073 205 186 144 0.92531815088403535 10 202 9 227 8 2830 7 252 5 193 4 176
16392 0.01410242427587482 0.13866404737308927 -1.0691490870791547 56 59 21 0.33650225204628553 41 4395 39 4876
21479 -0.89844095686382142 0.27334133492842405 -4.6769364392732342 135 116 102 0.079621803973643074 10 242 11 4332 9 246 8 2835
11206 0.37547322874318334 0.034341522218886554 1.485760452879322 88 79 66 0.32715715591947442 70 2449 69 2823 68 595
16394 8.2342301088289567 -0.51501582463040518 8.6756139861751222 207 229 242 1.9440169076283147 41 4370 42 4586 43 4647 44 4496 46 4847 39 4897 38 4820 37 4963 36 5132 35 2923 34 4884 33 4956 32 5069 31 2974 30 4991 28 4974
21481 13.496551318126212 1.469027747791027 12.96430198217201 202 193 149 2.465197803601145 11 4312 13 260 16 2491 9 271 7 4101 6 4119 1 4501
935 0.68619100889708029 -0.29589876270317628 6.188519143829982 26 35 4 0.28274815812241705 98 326 101 1689 102 1826 103 1713 107 1509 108 1660 109 2335 110 192 112 2435 99 342 97 301 96 316 100 1994
11208 0.30579022898218799 0.03544760599240819 1.452589854732018 69 59 47 0.15395030878808447 70 2523 69 2928 68 681
16395 7.1330669630066774 -0.48430471389212332 10.997809887970675 37 44 26 0.49675845269987368 41 4372 42 4588 44 4497 45 4688 46 4851 47 4443 49 4606 50 4710 39 4900 38 4853 37 5001 35 2925 34 4886 32 5071 31 2975 56 5109
6122 -0.12174032221588739 -0.64093048048640711 6.0091289061981508 245 255 255 0.69741762093988391 98 3390 99 3339 97 2667 96 1816 100 3595
21482 -1.4947904831140773 0.2759893468456952 -4.8342294203342187 47 53 19 0.52541691317706918 10 1781 9 288 8 2860 7 276
11209 0.28904554608415073 0.03528625238063765 1.4537820430546144 88 76 62 0.53115607098869122 70 2527 69 2933 68 687
16399 -1.6133861949831838 -0.0080161104216604946 3.9435612063685475 9 11 6 1.0449024830471663 40 4713 41 4409 42 4612 39 4928 43 4680 38 4854 37 5004 36 5138 35 2931 34 4891 33 4963 32 5028
21486 -0.9122116388538335 0.29048391853991712 -5.2074647475625655 52 72 11 0.28858532688466632 10 363 9 333 8 300 7 304
16400 0.55059947879328131 -0.043437148907822923 8.0420819583382173 79 99 27 1.5978080053877175 38 4855 39 4929 16 5396 15 3090 14 5774 12 3146
6127 -0.15947663951827851 -0.6049719981980145 6.0002548101468234 242 255 254 0.89640570525023378 98 3398 99 3346 97 2685 96 3005 95 1935 94 80 93 67 91 57
21487 -1.2449941996267042 0.28524278975996603 -5.1298054362417007 126 105 82 0.37109439452319448 10 1826 11 5186 9 340 8 2894
16401 -0.34538190421248943 0.10879150845386529 -0.50713090395354898 148 130 108 2.0718089228562055 40 4715 41 4424 39 4930 38 4829 37 5008 34 4849 33 4927 32 5030
6128 -0.071828166621881781 -0.58013406126635425 5.9705187335574541 20 30 32 0.40685111782692013 98 3403 99 3352 96 3015
21488 -1.0270648681827774 0.29210576441410091 -5.2069729892398167 99 86 69 0.53215782945937662 10 2480 9 357 8 2906
16402 -0.56380242956406679 0.12198772961241695 -1.094447895809898 83 102 23 0.97223800434550434 40 4738 39 4933 38 4831
6129 -0.069180204100364809 -0.57898619055996481 5.9602840964309376 20 30 32 1.5401453220268184 98 3402 99 3353 97 3389 94 2304 93 2310 92 2354 91 72 90 64 100 3998 101 3739
21489 -1.0997264371003355 0.29181788112445528 -5.2298499369004867 112 98 87 0.17243181746709282 10 2491 9 370 8 336
16403 -2.178778337037143 -1.0752716462761123 6.7597248255260061 250 255 249 1.5858738258543184 40 4754 41 4447 42 4652 43 4722 39 4977 33 5028
21490 -1.1399677086803601 0.29050403655617169 -5.2495362112355926 151 129 115 0.33265042266523009 10 1865 9 378 8 342
11217 0.66464117573092629 0.028464271264281294 1.6827643733235105 87 106 27 0.61448800264150383 70 2716 69 3759 68 3839 67 4003
21491 -1.071868364910453 0.29414582265631029 -5.2586863645957793 113 97 84 0.92251405669066389 10 2505 9 388 8 362
21492 -1.1049411332048125 0.29269676579023468 -5.2642604016867622 126 114 100 0.91824756681757302 10 1872 9 394 8 371
21493 -1.4274782920022777 0.28876483733962049 -5.1978193142165026 122 108 95 0.22594931035704893 10 1880 9 398 8 361
16408 0.2873063526840558 0.085457423848146669 0.28914768453624312 155 136 115 0.84486920484069028 45 3988 47 4092 43 4040 42 3333 40 2155 39 3510 50 4069 51 4230 49 3421 38 3416 37 2333 36 217 35 172 34 2263 32 208 31 151 28 165
21495 -1.4306213353807948 0.28952363144799637 -5.220077558164248 71 59 46 0.18484776528556243 10 1906 9 418 8 397
16409 1.4544202511928315 0.30549572501300698 6.2710766795311059 244 194 127 0.5127002808383061 90 4074 39 219
21496 -1.5811351284175068 0.28943844198683666 -5.2005960356796113 89 83 71 0.32646121354757757 10 1904 9 419 8 2941
16413 -1.6136641210279441 -0.16529095891603987 3.705947506565912 4 9 5 1.3372013918568681 41 4408 42 4610 39 4904 35 2926 43 4678
21500 -1.3250499009798853 0.29374933913376577 -5.3531162358377102 124 105 90 0.24105818990268627 10 705 9 488 8 471
16416 6.5592301217113507 -0.38860107433592489 12.792718773945232 93 107 57 0.98848230399786463 119 283 38 133 120 296 121 313 37 132 36 138 34 148 32 142 20 110 19 116 8 88
6143 0.57703440066834499 -0.30630913648419444 6.2113847371473705 30 45 4 0.31404036554851689 101 3385 99 3416 97 2816 98 2830 96 3129 93 242 92 233 91 246 100 3685
21503 -1.1154685211086184 0.29982425262649703 -5.4400418186040804 91 78 61 0.5104466759584938 10 1987 9 530 8 517
11230 -0.8012114787717185 -0.75699700998563324 6.0086699321552155 17 26 14 0.67903211004495734 70 2170 75 5063 69 4204
16418 0.12299585104121701 0.091947175105461076 0.25020189288019312 180 163 145 1.2886265745484451 39 196 48 283 38 209 49 2283 37 208
21505 -1.252404262116859 0.29736989479260589 -5.4323021249708576 100 87 71 0.41355272285051531 10 2574 9 547 8 526
16419 0.76005524617499554 0.11409075275278641 -0.17502497457662008 56 71 12 0.92249196067884043 39 2226 40 252 38 216 41 2039 42 3340 37 215 36 228
21506 -1.3105473245351009 0.29663270604041986 -5.4275702310953786 144 77 29 0.1749781754126698 10 2018 9 551 8 529
11233 1.1433062734083708 0.0063177481021883296 2.058182963765038 58 86 29 1.1505363630281837 70 1612 69 4328 68 3782 67 4677 66 3968 64 2434 60 248 59 246
16421 -0.14825705063335215 0.12353081291970858 -0.89396751319606715 162 150 138 0.34539784915179661 39 279 40 349 41 2130 38 263
21508 -1.3384896406432818 0.29824117152097301 -5.4613390225738536 114 98 75 0.12167803361135965 10 2593 9 583 8 570
11235 0.10192800450546691 0.017037939658455428 1.9482598903940003 29 46 4 0.03520701173832394 70 2329 69 4350
16422 -0.35566701139702944 0.12586023144075736 -0.94181963094265075 165 149 130 0.47247495148991925 39 2282 40 3388 38 274 41 3721
21509 -1.2543876578048179 0.29991820075197412 -5.4876216767886659 141 128 111 0.15717788206464753 10 2059 9 598 8 577
11236 0.21462173661577774 0.021606619868544206 1.8162907149388845 123 110 93 0.83030697188257041 70 2715 69 4363 68 3837 67 4002
16423 -2.3404367408696034 0.71579144521479177 11.462377056658333 142 102 60 2.5158855171241497 80 2816 38 275
6150 0.58064569079048467 -0.15360009150066714 5.9981040977164479 10 16 5 0.83412666899709764 101 3851 102 3896 99 3465 103 4054 97 3512 105 2401 96 3889 95 3176 94 3707 93 3794 92 3793 91 3882 90 3972 89 3936 88 176 87 2574 89 2623 86 2573 85 211 84 206 82 2680 83 2579 69 232 100 4111
21510 -1.3302980959260162 0.29872416570489013 -5.4755006605163796 114 102 81 0.41113802664528348 10 2602 9 604 8 579
11237 0.37303620621921119 0.027919111260956163 1.6395793460687054 123 112 106 0.51023143852332964 70 2379 71 5886 69 4384 68 2615 67 2733
16424 -0.35325716528537826 0.12709635673594941 -0.96378739566201221 166 150 134 0.49661620534171858 40 3393 38 279 39 2286 41 3723 37 268
21511 -1.1372996775945694 0.30386914292638323 -5.5350352326652859 83 71 57 0.61638054401275399 10 2607 9 619 8 3030
11238 0.54702201973658471 0.038056871671572103 1.4832985074561889 121 105 90 1.1263690147323757 70 2751 69 4413 68 4563 67 4044 65 2625
16426 -0.21627211714623279 0.13381163795469703 -1.1567403218202019 163 149 133 0.56361364944975867 40 3426 41 4041 38 310 37 2405 36 293
21513 -1.1486168509278927 0.30516053750574162 -5.5539794395131619 79 66 50 0.18473757428087892 10 2111 9 652 8 636
11240 0.34865532113360093 0.035091281054952121 1.4857256983509233 215 139 79 0.980610603920264 70 2762 69 4427
16427 -0.058423781508768223 0.14208936592168786 -1.2643634400418295 121 108 92 0.38167075642846587 39 2351 38 335 37 313
21514 -1.2915306380999787 0.30136986421350598 -5.5438053336584572 130 114 98 0.3046068726157638 10 2152 9 673 8 649
11241 0.33977130857747445 0.034883801921232159 1.45758482669692 243 183 116 0.0931423027132494 70 2904 69 4444 68 3928
21515 -1.100875731854343 0.30608851654359492 -5.608212758419171 87 75 59 1.1559012042317727 10 2143 9 679 8 678
11242 0.38047458234779097 0.035553411201223344 1.4474844557399964 93 81 69 0.91638929362191812 70 2774 69 4445 68 2759
16429 -0.36615005223841729 0.14355767695780072 -1.5100076961664075 143 119 88 0.019512518510788574 39 2726 38 561
21516 -1.4596077310540045 0.30160598305950248 -5.5127668558306198 107 92 76 0.14375014874358286 10 2653 9 697 8 675
11243 -0.60312929175522545 -0.55969949599309476 6.0774037548342443 241 255 250 1.0222305338172728 70 2602 71 5574 73 5403 69 4584 68 4767 67 4574 66 4580 65 3802 64 3541 63 2208 62 2152 61 2157 60 85 59 88 58 67 57 84
16432 -0.23452608582032947 0.15060741010826056 -1.5506515202501652 165 148 128 0.37065502973186021 39 2813 38 661
6159 0.62581099567101584 -0.068656290489885113 4.3219945479801414 40 65 7 0.41281917544777869 98 3568 99 3508 97 3542 100 4158
21519 -2.9157275220922458 -0.71733237919516468 3.2025947217187389 9 41 29 0.47986967458121604 10 1519 11 4095 12 1385 13 1547 9 1496 14 4092 8 3985 7 3897
11246 0.042901461691975291 -0.42495989272779161 6.0671502830119577 6 18 19 1.2167008182582868 70 2627 71 5599 77 5206 69 4614 68 4413 67 4599 66 4608 65 4600 64 4273 63 4251 62 4141 61 4004 60 3956 59 3984 58 4038 57 4106 49 3294 46 3324 45 2145 47 121 42 3244 41 105 41 3036 39 2111 38 3991 37 4229 36 4272 35 1331 34 3348 36 95 56 4286
16433 -0.29240771935053511 0.14853575494838842 -1.5464199155844003 91 63 54 0.35480077615188849 39 4329 38 681 37 532
6160 0.62581099567101584 -0.068656290489885113 4.3219945479801414 40 65 7 0.41281917544777869 98 3569 99 3509 97 3543 100 4159
21520 -0.84009481027406552 -0.7359057812852311 5.5178422529906026 25 33 18 0.12830154007881814 29 2261 9 1510 8 4001
16434 -0.29240771935053511 0.14853575494838842 -1.5464199155844003 91 63 54 0.35480077615188849 39 4330 38 682 37 533
21521 0.13361100883525009 -0.55245005803252745 5.9387510653976099 11 15 8 0.27458258909989158 19 3111 20 3211 23 3174 28 3434 9 1525 25 3184 8 4023
11248 0.24372540708988519 -0.030681396659108819 3.5674437712621248 46 45 13 0.84629165234107984 72 5499 69 4653 68 4829 67 5022 66 5030 65 5045 64 4336 62 4209 63 4318 61 4071 60 4011 59 4030 58 4085 57 4158 55 4089 54 3465 53 3899 52 3426 51 3492 50 3393 49 3356 48 3337 42 2142 40 2121 39 2176 38 2137 37 2294 36 2309 35 146 33 2248 24 169 21 131 19 135 56 4332
21522 -1.4705871928928207 -0.097966374609076617 0.52658019030899705 11 14 7 1.0519669275947012 10 1575 11 4173 20 3895 9 1558 12 2253 13 1613 14 4155 15 1541 8 4048 7 3964 6 3965 3 69 2 79 1 2410
11249 0.19093811784464654 -0.024276338837590283 3.6026333524579854 42 43 8 1.1266541943868669 74 5549 69 4656 66 4666 64 4339 63 4321 62 4211 61 3410 60 3378 54 3473 53 3232 26 141
16437 0.90109533381839468 -0.040137264847494615 3.0282777484426933 94 96 37 1.6815983116345374 39 2161 40 2101 42 2134 43 2165 45 2189 48 3323 49 3341 51 3483 60 3367 61 4061 38 2126 62 4201 34 169
6164 0.56532276523759917 0.065470365785695178 5.4163917532369039 95 93 81 1.4489913731162989 106 3684 99 3522
21524 -0.30740438973140188 0.2497747481312651 -3.905740386691154 91 101 29 0.031906751377779284 12 2301 8 4124
978 -0.026480248746188286 -0.57191165845745151 5.9491155023323543 241 255 255 0.59430012578564162 98 2684 102 3384 101 3316 99 2685 100 2878
21525 0.0044652933145908277 0.26085556197635307 -4.0240745331831809 48 62 13 0.3957917225602367 10 2403 11 5076 9 1637 8 4128 7 4041 6 4029
11252 1.2445687753476722 0.019347609348743286 2.1276886714950414 52 72 13 0.62496535872811176 70 2693 69 4676 68 4503
16439 -0.36707985098896179 0.016276114102472417 3.6388986003366179 78 98 35 0.88773069400251103 39 2200 42 3321 43 3408 44 3220 38 2161 36 3628 39 3497 21 142
6166 0.72573695168874008 -0.059815359718073439 3.9548365823802465 39 49 14 0.77450202276955737 98 2952 99 3540 97 2939 95 328 100 3836 101 3928
21526 -0.78251304044893677 0.26754183905236467 -4.5317780371346235 150 142 121 0.29909606393929966 10 2421 11 5500 9 1666 8 4159 7 4060 6 2763 4 168
11253 1.040824355317612 0.020800756170894864 2.0683038789034911 82 75 29 0.66442283202193342 70 2870 69 4678 68 4505 67 4687 66 4695 65 3919 64 3661 63 3659 62 3536
16445 -0.31130765487941781 0.13548974337168132 -1.2831687863318775 165 134 107 0.45946514581284115 39 3631 40 4043 38 2313 37 321 36 310
6172 -0.065123381504237271 -0.64167924455746894 6.0188533118552785 17 25 10 1.5649987338582962 98 3813 99 3736 95 3048 96 3739 97 3379 94 4276 91 2436 91 3748 92 64 93 2298 89 3813
21532 -1.5616153072004768 0.28779528910634516 -5.1473320383194476 63 63 39 0.70660849990163976 10 1859 9 1759 8 2915 7 324
986 0.35807828496213001 -0.58253027774432664 6.5237376612470772 248 255 249 0.58648360916985542 101 2619 102 2744 103 1591 104 2217 98 1661 105 77 106 2461 107 2280 108 2448 109 2245 110 1006 111 2326 112 2336 113 2210 116 2312 117 2963 118 2389 117 2372 99 2715 96 3043 95 132 94 143 100 2903
11259 0.14146843063857398 0.028999265234309797 1.6370305055156875 26 25 5 0.65890947482465578 70 2893 69 4717 68 4552 66 2676 65 2608 64 337 63 320 62 293
16449 -0.43626577293605501 0.13890130680430338 -1.3201504567434756 144 130 117 0.199900541232892 39 3669 38 2358 37 351
6176 -0.1731154474055159 -0.5867386604039021 6.0519330671982559 250 255 255 0.55511818731443685 98 3825 99 3746 97 3814 96 4209 95 3686 94 3582 93 3664 92 3690 91 3756 90 3853 89 3823 88 1454 87 3822 86 3888 84 57 83 2435 82 2542 81 54 80 2543 79 70 78 2512 77 2533 76 2589 82 4030 75 2489 74 2689 72 2566
21536 -1.502656564587854 0.28893664518706902 -5.236087652655951 89 80 62 0.30026877209991348 10 2526 9 1794 8 412
11263 -0.37493317620010241 0.0036914900467170846 3.6335394759455295 41 41 14 0.58631109137702098 70 2959 71 5960 69 4837 63 4747
16454 -0.10331830320909245 0.14969285018959674 -1.5007783837484079 87 96 47 0.29981220273635684 39 3724 38 2418 37 407
6181 -0.13818095394022151 -0.50062177715359246 6.0350510765107428 20 18 19 0.91039600229405782 98 3837 99 3759 97 3831 96 3773 96 4226 95 3706 94 3606 93 3685 92 3704 91 3783 90 3874 89 3842 88 1476 87 3850 86 3919 85 88 84 89 83 3935 84 1579 82 4055 80 2579 79 1517 75 2514 60 104 100 4009
21541 -1.6036314684867987 0.29087996671941291 -5.269171659004698 31 31 6 0.85053856548744866 10 2540 9 1813 8 2958 7 390
11268 0.37521388007508216 0.036965804243671102 1.4363518506036237 88 79 64 0.59283421721580898 70 2986 69 4877 68 4586 67 2816
16455 -0.11241519810643333 0.1507721343097943 -1.4979455404303106 56 69 12 0.31237688739586583 39 3731 38 2427 37 416
21542 -1.1444366770320615 0.29573260901137599 -5.3497528704164106 144 125 105 0.18577552360476338 10 2854 9 1815 8 2963
11269 0.33097440657368871 0.033532871733787106 1.4281622554473887 107 93 84 0.9869766782394811 70 2989 69 4879 68 4588 67 4070 66 2729
16459 -0.26938392563639024 0.14636502941558735 -1.488160954345386 79 64 52 0.24788229697162953 39 3763 38 2445 37 430
