# 3D point list with one line of data per point:
#   POINT3D_ID, X, Y, Z, R, G, B, ERROR, TRACK[] as (IMAGE_ID, POINT2D_IDX)
# Number of points: 347, mean track length: 8.1621786714176636
31274 0.22516365751998282 0.098264675138441199 -4.2680943538729137 73 58 39 0.9780865787676809 37 2009 19 2122 17 1666 16 1328 15 1334 16 1667 14 1272 13 462 12 434 11 394 10 410
31273 0.18948396231854403 0.097551704523669056 -4.2366809014036848 208 157 118 0.68495758043263566 37 2003 19 2116 17 1330 16 1311 15 588
31272 0.59498275962723723 0.099752071605892972 -4.1839488068641266 188 149 98 1.1030932555494595 37 1995 19 2112 17 1646 16 1302 15 1307 14 489
31271 0.61775026068756289 0.098832896180596014 -4.1527392582889382 70 49 33 0.1344301001192221 37 2134 19 2108 17 1853 15 1691 14 1621 13 1193 12 1196
31270 0.61780042538940005 0.098962782614925221 -4.1521997720248836 70 49 33 0.19455037591950419 37 2133 19 2107 17 1852 15 1690 14 1620 13 1192 12 1195 11 357
31269 0.10005291694532847 0.099363571847869536 -4.1651892217784869 131 112 82 1.4063050179305632 37 1989 19 2104 17 1850 16 1652 15 1689 13 1191 12 405 11 358
31268 0.091632592286827144 0.1015846145389952 -4.1175609538116085 141 116 80 0.99543496401589293 37 1985 19 2100 17 1847 16 1649 15 1685 14 1244 13 411 12 393 11 352
31267 0.79190956071946472 0.10704246255957749 -4.0136985036669417 193 136 91 0.91699999013323907 37 1978 19 2094 17 1843 16 1852
31265 0.068348985414314556 0.10607946251986482 -3.9415978746625302 154 116 85 1.0652754645338443 37 2120 19 2088 16 1848 12 1623 11 1528 5 258 10 1205 9 1161 8 1102 7 294
31261 0.14528453033351924 0.12124042878283084 -2.1529594018763296 236 183 131 1.1139102412428734 20 2132 37 2088 19 2052 5 1103 22 2125 16 1816 13 1542 12 1596 11 1502 9 1582 8 1540 4 1166 3 226 2 3318 1 236
31258 0.206744626226639 0.098454334056603782 -4.2575393793234921 93 69 50 0.80181804242173949 37 1504 19 1995 16 598
31254 0.55828665679963685 0.09721437952042418 -4.1671994383722799 206 159 116 0.50561338139824286 37 1479 19 1985 17 603
31251 0.70181955402275564 0.10529242580768898 -4.0174643778311854 161 121 81 1.072991253651461 37 1976 19 1972 17 1841 16 1643 15 1263 14 1239 13 395 12 377 11 340 10 362
31250 0.78882007627758799 0.10842271309336492 -3.9832366974237496 196 139 96 0.7425325167820449 20 2075 19 1968 17 1619 15 1258 14 1238 13 1178 12 1177 11 1136
31248 -0.14673091745678027 0.098061159626669461 -3.7701448880567638 97 109 7 0.90614051197174195 37 1957 19 1951 17 1596 16 1218 15 401 14 1209
31247 -0.16222994034613222 0.098796013313351694 -3.3411817216565471 95 110 2 0.26802585917416188 20 2047 21 2059 19 1932
31237 0.44713595264106215 0.095628620865047323 -4.2011170561654456 255 255 95 0.47587223877980139 37 1486 19 1814 17 622
31233 0.6607097988240328 0.10153085631794354 -4.1641630611826068 190 148 105 0.42678086529725245 37 1482 19 1806 17 1319
31224 0.099373277952271452 0.099209625049241246 -4.1481742309080936 110 96 62 0.50577009993675071 37 1455 19 1788 17 577 16 537
31214 -0.026044250927945132 0.10349229545747969 -3.9173748244443494 172 146 104 0.37296592807353757 37 1382 19 1740 17 1243 16 1247
31207 -0.26521699946840011 0.10185343008808996 -3.5543960360229261 66 82 9 1.0594545515811131 37 1312 19 1684 17 1184 16 1197 15 360 14 331 13 317
31198 0.61939507276588412 0.10174611372022829 -4.206082999223959 64 53 36 0.26677288619132661 37 1498 19 1505 17 652
31197 0.62878251742183255 0.1027703804866094 -4.1771837609807614 214 183 119 0.42803762027509729 37 1489 19 1486 17 628
31195 0.35474055468992877 0.096996208320638502 -4.159599781082651 170 135 90 0.38514640047634557 37 721 19 1454 17 590
31194 0.35474055468992877 0.096996208320638502 -4.159599781082651 170 135 90 0.38514640047634557 37 720 19 1453 17 591
31193 0.16318796859449583 0.099282269290008648 -4.1573113660378072 155 121 82 0.45148406580537825 37 713 19 1451 17 585
31192 0.57236824147488352 0.097967389351686696 -4.1090472185788718 197 146 106 0.55904266369120448 37 691 19 1441 17 566
31188 0.89850779976776718 0.1080514097874634 -4.0237050089922128 52 40 8 0.21532679530790108 37 659 19 1413 17 530
31187 0.85810202978747374 0.11049977896201475 -3.9735452602725934 141 107 69 0.33390782192732521 37 1416 19 1408 17 512
31186 0.83710775854307784 0.10951638325746878 -3.9746615627937749 175 133 91 0.32207415499171282 37 634 19 1406 17 511
31185 0.81326734518725785 0.10711760333766486 -3.9577513566890734 155 112 70 1.0125933370065079 37 614 19 1398 17 493 16 479
31180 -0.095314258657538606 0.10071551071922222 -3.8168183507117521 93 96 19 0.36262151468451531 20 548 37 506 19 1339
31179 -0.10922693158007933 0.10351224528611461 -3.5935526529130888 85 91 14 0.48986397518287478 20 1333 37 433 19 1295
31171 1.3902174230934399 0.16338669737965913 -2.2712581437704111 93 89 16 0.67598939300329952 21 1699 37 1269 19 1234 22 1651 17 1144 15 1176 14 1172 13 1123 12 1116 11 1076 10 1154 9 1122 8 1070 7 244 6 240
31158 0.79788482808695294 0.11102570187243826 -3.5456322631074069 0 0 0 0.69516144144317527 21 1345 22 1320
31157 -0.24769884821578811 0.10067411151867947 -3.5246520206616325 50 69 3 0.83681123703510374 37 410 19 410 16 327 15 355 14 327 13 312 12 1133 10 307 8 248
31142 1.4325114363807478 0.17898239442846098 1.0782964393869423 93 112 20 0.61063766719607315 24 200 26 206 19 201
31141 1.9125030070104583 0.19376445212477189 1.4378715609528696 0 0 0 0.61901142053817693 21 1172 22 1125 23 1146 24 1147 25 1138 26 1119 27 1200 28 1210 31 1174 32 1067
31140 -1.6010845186827727 0.16850315639897634 2.7039596674243112 64 62 10 0.39667455157707587 29 1189 19 182 7 179 6 176 4 179
31139 -4.7419119232593827 0.15031403045518765 6.7888947786792766 45 49 26 0.47284123754796892 5 136 19 168 8 143 4 150
31135 6.894966484422028 0.29931777082643135 21.405114273408909 104 110 42 1.5179576274051383 29 132 123 1820 19 140 10 155 2 3232 1 141
31131 0.78233191095483334 0.11273530921824411 -3.5448558515352153 82 63 42 1.0623487468199602 20 1938 37 1738 21 1960 24 2193 23 2050 22 2047 19 1691 17 1586 16 1616 15 1653 14 1595 12 1145 11 1109 10 313 9 283 8 261 7 274 6 274
31106 2.340019206253944 0.17673872747183561 0.43310102243150378 88 98 24 0.41968212710317221 22 2117 37 2192 21 2147 19 2158 17 2032
31099 2.6398332601255734 0.21940883296500271 4.2244661429018535 0 0 0 1.3539468952343023 23 2008 35 2176
31096 0.46834346015713191 0.10023870248815574 -3.9287583136261777 207 159 107 1.3682272924173482 22 2070 37 578 21 1992 17 467
31094 0.81921832768028213 0.11013441048436544 -3.8693979835849888 162 125 80 0.46713282896669928 20 1959 21 1985
31093 0.16133199652449975 0.10663127829251254 -3.8770092238621809 216 178 129 1.5381037265235857 20 1762 22 2066 21 1982
31091 -0.099666717868690372 0.1065569731795019 -3.6150419884377993 62 53 21 0.73492783855048893 22 2048 37 1333 21 1961 19 1697
31089 0.037947337973482577 0.11031978912735491 -3.2621851009575731 216 163 111 0.77458088936851921 37 1292 21 1946 19 1672 16 1180 14 1180
31088 1.123638239478993 0.12971877440013466 -3.149647606917779 94 102 25 0.42633402915597191 20 1914 22 2024 21 1945
31052 0.60249886930237784 0.10280580077010909 -4.0211258087581578 100 81 58 0.21846400931697485 20 810 21 1552
31043 0.8104539711199239 0.10940298301321107 -3.911819505414317 130 102 65 0.39939449922114845 20 1423 21 1470 19 597
31041 0.83811964002004669 0.11082979969208022 -3.8935150026803953 118 90 60 0.22585458614616469 20 677 21 1463 19 584
31039 0.73716891039682553 0.10884011498329203 -3.8643822409967892 153 117 80 0.79578902062000134 20 649 22 1945 21 1453
31035 0.16034114408376279 0.1031408319013437 -3.8680307826852278 164 127 83 0.50710926086307861 20 1402 21 1443 19 1365
31034 0.54023301400359081 0.10529586578983323 -3.8345541611646925 222 170 123 0.17618687358487173 22 1440 21 1442
31032 0.60936786319548741 0.10713233692126972 -3.8210848829297683 223 174 108 0.24504560832726377 20 595 22 1760 21 1436
31031 0.87569636272391294 0.11015578928803524 -3.8186401701130759 55 48 7 0.23416017531185998 20 591 21 1433 19 538
31030 0.88187336037467012 0.10881988570022984 -3.7903306747377017 55 56 24 0.12994448325488769 20 565 21 1416 19 520
31029 0.86735653476966068 0.11019838323267894 -3.764670258342548 59 54 5 0.93953272588802006 20 556 22 1397 21 1413
31027 -0.018118911688350944 0.10461273088528969 -3.7931446069939199 132 104 71 0.72253442521672973 20 1380 21 1407 37 509
31026 0.86335643913348281 0.1115461831687638 -3.7107257381856638 68 53 14 0.10606835035209972 20 531 21 1388 19 489
31019 -0.0051580546957017562 0.10858704541470725 -3.4620083260906895 220 173 127 0.14428805823178306 20 431 37 412 21 1323
31018 -0.2344338529777765 0.10238585289299799 -3.4913288717564885 54 70 1 0.33140371171784561 20 1316 21 1317 19 1279
31015 -0.033704816664348269 0.10734818015964184 -3.2457065916973034 195 144 101 1.2087510592293615 37 371 21 1286 19 1250 17 320 16 301 15 330
31012 0.25418752245774184 0.11057841542191457 -3.1667386094261789 237 175 124 0.57280001478289322 24 1729 37 354 21 1278
31005 -3.4232339424265339 -0.10543518127106871 7.0591655392624277 9 13 0 0.54775217360851858 20 1127 22 1077 27 1134 93 3475 19 1127 17 1043 14 1095 15 1095 13 1051 1 1069 4 1117
31003 0.2722128862165234 0.10042470342908125 -3.9572532567894525 172 127 93 0.2993565028748571 20 701 22 1513 21 800
31002 0.25748956295099262 0.10365497438899848 -3.9359472233969148 137 101 71 1.0465102445790209 20 694 22 1497 21 781
31001 0.25887316938576077 0.10143015264110963 -3.9322974508772699 126 89 68 0.14819536321006421 20 684 22 1489 21 760
30999 0.13012549110009164 0.10205433099502152 -3.9130008606960245 200 155 114 0.87852898312443906 20 651 22 1460 21 728 19 565
30993 0.5899545564823353 0.10289875351792001 -3.7421854737704252 155 114 84 0.78386598350335268 20 535 23 1751 21 599 19 487
30985 0.79204411597170987 0.11314148881825693 -3.4602328909993285 125 90 57 0.36856980701059222 22 1299 25 1783 21 451
30984 0.36710579316704328 0.087066464336663721 -3.5381020873665734 215 162 112 0.031638188907114353 23 1314 21 432
30983 0.64662936838799545 0.10889883152767306 -3.3757955189678595 163 118 81 0.31981621925995812 24 1753 21 417 19 394
30981 0.18732761759215102 0.10940106693266179 -3.2638503362723941 226 171 130 0.35641261488122267 22 1265 23 1276 21 388 23 1664
30979 0.053014540041164904 0.09234765152796201 -3.2659647222826633 0 0 0 0.36856737996944111 23 412 26 1682
30978 -0.17135606515371701 0.10116212409755876 -3.1466692674677295 105 121 13 0.20295075423416406 23 1245 21 340 22 371
30977 -0.71592395744069881 0.11429145912623373 -2.2050865653573415 91 100 21 0.81124041715073103 20 285 23 1202 24 1203 37 282 21 277 19 284 15 1169 14 269
30974 1.1508313307552529 0.18389013627627238 1.5691696462395357 232 177 115 0.34424967494062569 20 205 22 202 23 1139 24 1138 25 1132 26 1114 37 191 21 191 19 195 17 185
30972 8.2278918470857949 0.54932566036024366 15.673660957892896 88 93 13 1.0637439910496074 35 1113 21 161
30970 0.24085554961750538 0.11759388557887913 -2.6752230304066926 204 155 112 1.6321169974060368 20 2228 21 2260 19 2262 17 2097 37 2256 16 2106 15 2119 14 2041 13 2002 12 2084 11 1980 10 2074 9 2067 8 1951 7 2039 6 2034
30968 0.46605073235470296 0.11456309440450904 -2.9922321657454765 231 178 124 2.1252758192178165 24 2176 25 2202 22 2017 21 1936
30967 -0.36690350316431031 0.13253809752890464 -1.3933291826350733 158 167 32 0.66127384418010593 20 1203 25 1660 22 1169 19 245 26 1602 28 1978
30965 0.76197847963750742 0.11458260855876569 -3.3558273648349601 108 83 56 0.85559562895069641 20 1307 37 392 22 1691 26 2038 25 2076 24 1983 23 1917 21 1315 21 1731 19 1268 17 334 16 315 15 348
30964 -0.13664913706002957 0.11381559669450579 -2.9921784121622261 98 76 52 0.93872356997793405 20 341 37 334 27 1803 26 1667 25 1718 24 1711 23 1239 22 1230 21 332 19 332
30963 18.095697232125211 -13.078169446864436 41.516053788747371 143 173 209 1.7698064521902825 5 1738 23 1534 30 1646 31 1555 20 1558 37 1609 33 1579 32 1472 29 1679 28 1626 34 1587 27 1620 26 1496 25 1549 24 1550 22 1541 21 1583 19 1554 17 1726 16 1491 15 1796 14 1748 13 1730 12 1776 11 1681 10 1781 9 1784 8 1723 7 1797 6 1829 4 1761 3 1896 2 4867 1 1888
30955 0.66665148826186416 0.10765650343792478 -3.5762996489272547 164 125 84 1.478470073833718 20 2276 23 2266 22 2254 21 2311 19 2312
30953 0.58961421888044252 0.11829269594274992 -3.2307191847348267 216 162 118 1.3453871192785247 20 2229 37 2259 22 2236 21 2263 19 2227 16 2052 15 2058 14 2044 13 2003 5 1811 11 1893 10 1989
30942 0.32791836299295052 0.11470546824572897 -3.1468247679808075 253 246 106 0.33259066080390687 20 2044 37 1934 22 2131 21 2055 19 1929 17 1798 16 1822
30941 -5.0290299251394792 -0.14321684720597846 4.867621522189614 4 9 2 1.1967976162887144 5 1935 22 2109 19 2152 16 2037 15 2046 13 1991 12 2064 11 1959 10 2061 9 1971 9 2053 8 1929 7 2101 6 2016 6 2102 4 1954 3 1935 2 4904 1 2002
30938 0.14415861237847555 0.10228712189943309 -3.8194264577921153 188 149 98 1.1013627763963156 23 2160 22 2058 21 2085
30937 0.14072469747072242 0.10415313073950898 -3.754992601794636 138 112 82 0.72285933027432003 20 1738 23 2065 22 2055 37 1350 21 1972 19 1720 17 393 16 387 15 416
30932 0.58303020982055997 0.10978774025808509 -3.5350373525734922 217 168 121 0.074088812898015097 20 1936 22 2046
30928 -0.23556744497677412 0.099656096964282251 -3.3954070708693278 67 79 13 1.0652400805925559 20 1920 22 2032 37 1938 21 2066 19 1934 17 1804
30927 0.53251499621483445 0.10720125892519446 -3.3160940641411925 244 188 134 0.74502949575575328 23 2145 24 2185 22 2030 21 2065
30908 0.061742829657859953 0.10413190521001482 -3.7552475586297973 134 104 68 0.58320916970312386 23 1951 22 1729 21 1390 20 1365 19 490
30907 0.12449931162883983 0.10871101011032357 -3.5082318807503157 250 188 137 0.46118057201549734 20 447 22 1708 19 424
30906 0.052979739137772951 0.1068389248640956 -3.4864757144802292 213 160 117 0.57471537097572911 23 1924 22 1702 21 1741 20 1324 19 1288 37 1310 17 1183 16 328 15 359
30904 0.85220108493187519 0.11500314270333002 -3.3246172700421881 75 80 0 0.3322252339253518 20 405 23 1674 22 1684 21 1303
30877 0.19470889554933341 0.10326400682466567 -3.846007512688812 124 90 64 0.48592151121562521 23 1775 22 1424 21 1434
30873 0.25647723372553038 0.10301758805982968 -3.8177492735449929 103 77 54 0.40558252570716247 20 575 23 1484 22 1411 21 646 19 522
30870 0.54459787082597855 0.10614222593616614 -3.7762738100364452 238 183 127 0.22556682393915761 23 1761 22 1401 21 635
30869 0.54459787082597855 0.10614222593616614 -3.7762738100364452 238 183 127 0.22556682393915761 23 1760 22 1400 21 634
30868 0.85999314747373312 0.11122477687633942 -3.7629557194181653 112 91 62 0.57520049023408648 20 558 22 1398 21 627
30867 0.15664756138409747 0.10241062735512087 -3.7872182919957154 192 153 107 1.0054178611114457 22 1390 21 1410 19 506 37 508 17 401
30866 0.25233747705874482 0.10316846265145958 -3.7671508476114264 127 97 74 0.14930892977290397 23 1756 22 1388 21 1403
30864 0.85248710569576625 0.11419290297584793 -3.6966461287222834 82 65 40 0.38484260064444342 20 530 22 1378 21 1387
30863 0.56140303284429671 0.10473633526701788 -3.7139544831811495 196 143 96 0.10323787516543954 23 1741 22 1376 21 585
30860 0.63820189522824344 0.10894308834332322 -3.6593012464164612 201 140 90 0.068825115356732955 23 1730 22 1361 21 1378
30843 0.78155714632944207 0.11803182916445507 -3.3171869051225973 148 108 73 0.43583119307512924 20 1303 23 1681 22 1281 21 1309 19 395
30832 1.6243895736863405 0.16682304261119293 -1.4102795843981795 77 83 13 0.7044882826021287 24 1192 22 1178 25 1200 26 1612 27 1745 28 1757 21 1220 20 1210 19 264 37 264 17 252 15 257
30826 1.228607807977165 0.24164517117172987 2.7856913261388891 241 182 117 1.7696696902261702 23 1143 34 1958 32 1557 22 1122
30820 0.25908905479319727 0.10243435008404178 -3.8490898791128276 103 76 56 0.33467173990249488 23 1506 22 791 21 674 20 596
30819 0.25343794914770318 0.1022717849722178 -3.797041695655246 117 93 59 0.46439790651408241 23 1472 22 728 21 628
30815 0.26080944992373839 0.10155608170409425 -3.7823923431278521 206 176 126 0.52735130239805883 23 1454 22 704 21 618 20 552
30814 0.25019210244400414 0.10437428662516356 -3.7733487486744459 129 99 72 0.082145335630332009 23 819 22 703
30811 0.29131904262948571 0.10257565542342149 -3.7486746728006017 202 170 113 0.16602075046733486 23 1437 22 681 21 605
30808 0.85031976127389364 0.11203340419476356 -3.609838032090833 53 41 7 0.40950483607624216 23 657 22 585 21 523
30807 0.84777339305380217 0.11279695837980934 -3.5956170859192054 43 32 4 0.058147106220391098 23 1374 22 574 21 513
30802 0.35097805657766745 0.10509300418024535 -3.5210695198249495 218 167 114 0.45598029245032928 23 1344 24 1781 22 509
30798 -0.060815108530412887 0.11285470851668421 -3.2707421545804536 207 160 109 0.42577056463436147 20 396 22 418 21 394
30793 0.47336597647486256 0.11359625073806759 -3.0711056143949089 228 178 123 1.4271778170198006 25 1729 26 1895 22 375
30792 0.60121130155588531 0.11102387296679674 -3.0853685525970747 204 153 110 0.19808788758605289 23 397 24 1258 22 373
30788 0.85439023456496699 0.12643746039412121 -2.7331833134420713 108 89 13 0.3508651895324067 23 1227 24 1231 22 336 25 1257 21 308
30786 1.3241785106352753 0.16964944050786648 -1.7528542606407467 89 87 12 0.43499487951017674 23 287 24 1205 22 298 21 280 20 289 19 289 37 290
30785 -0.28068898116903579 0.12298141677786775 -2.0262122202371065 122 128 27 0.57423463471052349 20 282 25 1211 22 288 23 282 21 273
30784 -1.0086505546044782 0.25836254040144824 1.3855031321194289 103 110 17 2.3649795920689933 23 222 50 1753 22 244
30779 -3.8193986121476535 -0.60195897340061921 12.707701658950059 253 254 250 1.7412235514647851 127 2861 22 81 123 1716 124 1722 126 2468 129 2961 121 1684 122 1643 128 2408 127 1726 129 2596 130 2613 125 58 119 1699 120 70
30778 -5.1715041933365757 -0.73234651644574877 4.0777065748360233 78 80 36 0.41350565130923272 27 28 28 42 29 31 30 31 31 1035 22 30 21 31
30760 0.84857344483646202 0.11784903365926501 -3.4252359421894574 81 73 16 0.53453413951588447 24 2316 23 2265
30747 0.93951169484958519 0.13538273879393103 -1.7202564805200646 147 132 29 1.8019220246555969 20 2191 25 2251 37 2254 23 2222 22 2211 21 2257 19 2222 17 2128 16 2103 15 2116 14 2090 13 2062 12 2079 11 1975 10 2069 9 2062
30739 0.20262944600051541 0.1032106978485139 -3.4333967137868884 212 172 126 0.74575634698729709 24 2245 23 2148 22 2036 21 2070 37 1942 19 1942 17 1807
30721 -0.20034337007410472 0.10688684720525464 -2.7414184512179816 124 131 27 0.88518430689201577 20 1909 37 1927 22 2015 19 1922 17 1563 16 1600 15 1632 14 1579 13 1119 12 1113 10 271 9 247 7 241 6 233
30718 0.36797319521130961 0.11752197902115222 -2.1020869105005784 171 135 98 1.6556770542934029 25 2141 26 2103 28 2266 29 2327 23 2025 22 2009 19 1920
30717 2.1684248096649448 0.16460239321302891 0.28844891163389053 80 94 17 1.7906223637735668 5 1557 24 2061 23 2013 8 1526 9 1847 7 1619 6 1625 4 1596
30716 -2.1748721500570869 0.143576826863207 2.562321754939703 9 10 4 2.1640746781489293 20 1880 51 2494 22 1842
30714 17.361928188530982 -10.179108608732323 38.06066538574396 180 233 247 1.2013276022504245 38 2170 3 1898 14 1890 23 1976 25 2008 2 4868
30712 0.51927059177316737 0.10380968529542353 -3.7139299317321433 76 56 38 0.11373188102270504 24 2120 23 1950 22 1728 20 1362
30710 0.51515451200386375 0.10737426222056728 -3.6637457323786502 72 62 49 0.3382692997120611 24 2011 23 1946 19 470 37 473
30707 0.37705685436966124 0.10147708415633314 -3.6279054103935278 246 213 95 0.67986009413643234 20 474 23 1936 22 1715 21 1359
30675 0.50957508020366671 0.10386623196124996 -3.6656159849052026 211 158 106 0.25083847514529711 20 493 24 1818 23 1724 21 550 19 462
30672 0.84253648355968525 0.11243977551024192 -3.5310702266734619 50 41 5 0.50231180587992197 24 1787 23 1705 22 1315 20 450 21 476
30668 -0.04943474462534804 0.10895031136144009 -3.4068260568036051 183 149 103 0.7741236611366954 24 1984 23 1682 22 1692 21 1732 20 1310 19 1270
30666 0.18827883438122733 0.10885250221735085 -3.2675807452403216 212 166 117 0.2827467938682256 20 390 23 1665 22 1266 21 387
30658 0.76863944332565137 0.11042620098793952 -3.7042987569498051 154 111 76 0.76144171761764923 24 1845 23 1427 22 668 21 591 20 523
30657 0.42939505655752935 0.1016732370714911 -3.7235527614221713 216 159 113 0.28910552599792666 24 1843 23 1425 22 656
30656 0.57106239825045157 0.10723871604285287 -3.6999054594544125 112 84 56 0.10641468908512182 24 1842 23 1424 22 658
30655 0.5625894162200632 0.10584456067046799 -3.6896748864083273 245 223 140 0.41885953142191368 24 1837 23 1416 22 642
30654 0.56905594058615305 0.10554465096945212 -3.6869927840019909 132 94 81 0.41776673143362258 24 1835 23 1412 22 639
30653 0.56905594058615305 0.10554465096945212 -3.6869927840019909 132 94 81 0.41776673143362258 24 1834 23 1411 22 638
30652 0.50627317137536831 0.10228917214773334 -3.6879082890020483 200 151 106 0.23923275831899293 20 504 23 1410 22 1365 21 559
30649 0.14243093111997712 0.1056084566512669 -3.6679197329251152 205 165 113 0.27184341050943217 24 1812 23 1396 22 1353 20 495 21 548
30620 1.267809541597908 0.14919866529862094 -2.6647355668375594 85 89 15 0.55472961287348765 24 1241 23 1230
30615 -2.4937971621372248 0.16381412126182576 2.3251456185405299 7 8 0 0.91098670292458961 34 194 23 1136 22 194 21 186 12 179 6 177
30609 0.45274117886359438 0.10245777490848709 -3.7361390246853872 198 147 91 0.45691693847052378 24 1520 23 774 22 672
30607 0.76532938433945175 0.11117271408399067 -3.6716500706973201 152 109 71 0.73547597208868232 24 1831 23 737 22 640 21 571
30605 0.56035248397794146 0.10719109122676095 -3.6607532398732978 98 76 44 0.14348916655940677 24 1469 23 713 22 624
30604 0.56035248397794146 0.10719109122676095 -3.6607532398732978 98 76 44 0.14348916655940677 24 1468 23 712 22 625
30603 0.58497222694734197 0.1084991048706134 -3.6458394109548751 147 113 73 0.3239284790679125 24 837 23 698 22 614
30601 0.76886463834017216 0.11300821160789601 -3.604180250855904 181 147 97 0.57867695183840373 24 1439 23 659 22 589 21 526
30600 0.8200378832591676 0.11305362245493469 -3.574036415649684 145 108 77 0.096915609168982383 24 1415 23 629 22 564
30597 0.8153217898702807 0.11459280707293741 -3.5258230154726733 151 114 85 0.25967168326751272 24 1388 23 592 22 540
30596 0.75972535719154022 0.11291316348278267 -3.4875564024057342 154 115 72 1.0948139817038396 24 678 23 557 22 508 21 465 20 445
30593 -0.11442243294547352 0.10784376792327197 -3.4272035790050506 31 30 0 0.43302233365855025 24 588 23 486 22 454 21 430
30588 -0.094836107066515615 0.10592526936787838 -3.3799740935917448 108 89 57 0.77815046657485443 24 1326 23 469
30587 0.28025278189122849 0.10645996482499814 -3.249461509001085 183 142 98 0.22288533086165732 24 1295 25 1327 23 437
30586 0.86568125069810464 0.11611178397232104 -3.1865220859361196 135 120 39 0.6210544427828617 24 1289 23 432 22 401 21 373
30585 0.12395435096133196 0.10952928305927209 -3.1987649409323193 233 178 124 0.14147265942882839 25 1739 23 426 22 399
30584 -0.0054353869764748285 0.11339129918440935 -3.1044009134750516 162 121 79 0.44748526782490217 24 467 25 1303 23 405
30579 0.93713693896060779 0.12668689793543009 -2.7206314453747935 93 88 20 0.43435584385251369 24 366 25 385 23 345 22 334
30578 0.97026530988730142 0.13427041233125128 -2.5907272156729442 149 122 45 0.78750414716694583 24 352 25 1252 23 336 26 1235
30577 -0.026590384581252059 0.11192621717863416 -2.7090520386724553 189 141 95 0.17433006491563083 24 347 25 1250 23 335
30576 0.80575941814746654 0.12340668768733792 -2.6135175550359446 142 125 37 0.54436150401263728 25 1249 23 332 26 1635 27 2016 22 326
30574 0.71339347842276357 0.12592233111825277 -2.4551093941799111 96 88 19 0.4655247848549835 26 374 23 312 27 393
30570 1.0254325170718126 0.14855928491627618 -1.4041139736833057 158 131 48 0.92852470282081501 20 259 37 256 23 258 21 256 19 252 17 242 15 247
30565 -3.9372313891681658 -0.045340920571267061 7.1768596330842094 48 53 20 0.26141857882497377 30 137 31 138 32 121 33 132 34 132 23 124 17 129 16 126
30563 -5.0534097132626856 -0.46760047263132332 6.8696415154189356 11 13 4 1.2037418515987592 25 73 26 78 28 1123 29 1105 23 69 30 72 31 1059 32 962
30556 -0.70283958998718887 0.12408856961646328 -2.0563166554815631 29 32 6 1.0878066991117186 28 1764 29 1795 27 1752 24 1201 20 1225 25 1213 26 1189 23 1201 22 1193 21 1236 15 270
30533 0.53272437227444591 0.10792031412123031 -3.3118886350591197 237 188 132 0.83326748407547568 20 1919 24 2186 22 2031 23 2144 21 2064 19 1937 17 1572
30512 0.64706092360429979 0.11181787783103839 -3.4957569630346126 157 119 83 0.92524846011024164 25 2084 24 1992 23 1702
30511 0.49373567600259366 0.1065334090968702 -3.4863393512123215 83 61 54 0.16276688477779569 25 1981 24 1988 23 1695 22 1300 21 1329
30507 0.79510675650078388 0.12157373281252577 -3.2357538965868509 151 111 75 0.42735149491441354 25 1955 24 1972 23 1670
30506 0.6964442073451601 0.11685838551053541 -3.2304854406112433 214 161 109 0.70126229401720419 25 1952 27 2271 24 1969
30448 0.65118304847788322 0.11892916363162753 -2.8248038789290772 222 166 117 0.31407172624324775 26 1650 24 1237 22 1215 20 323 21 313
30446 0.75465831223950475 0.12991798983585068 -2.2519248619290364 140 125 30 0.64838356286710952 26 1201 27 1762 24 1210 23 297 20 294 22 306
30438 0.73485858648108215 0.11351387227147086 -3.5828733367112147 203 151 100 0.65193079892313366 25 1505 24 778 23 643
30437 0.17191744576946 0.10650659715078159 -3.5892185758998778 233 181 131 0.3505306389515716 25 1485 24 734 23 612
30436 0.57448768206970013 0.1085888856827948 -3.5361025112276998 127 92 57 0.18415528694643513 25 1466 24 706 23 587
30431 0.57789147304520871 0.11019429073704082 -3.4712577234774948 142 100 72 0.47522436988788103 26 1753 24 659 23 538
30430 0.22104553141587691 0.10614136107444712 -3.4994216074171436 198 151 105 0.81253591767004885 25 1430 24 657 23 539
30429 0.0018460306561045537 0.10800931034726653 -3.5036429714421526 191 158 107 0.98701497049121167 25 1416 24 646 23 533 22 496
30427 0.0035218056357540026 0.10882948926759335 -3.4527016598324898 161 128 83 0.76137131679424952 25 648 24 615 23 512
30386 0.35501513485198982 0.1045097736272082 -3.3851630714595622 249 219 85 0.4584514945201148 20 2050 26 2220 25 2230 37 2099 24 2242 23 2197 22 2139 21 2167 19 2066 16 1974
30374 -2.8431906414491963 0.46719945565079612 9.6498573745561647 0 0 0 1.8097622277873651 5 2015 49 2606 32 2165
30371 0.022416600037697691 0.10784867474003336 -3.3171742029287485 165 127 83 0.04039761124554124 26 2126 25 2071
30367 0.49411293558467778 0.10935224377807345 -3.007958190125168 242 186 128 1.0171571861868904 20 1682 26 2111 27 2259 25 2058 24 1952 23 1898 22 1875 21 1708 17 294 16 1173
30363 24.607547911823954 16.628836057243277 44.272012837833671 151 126 82 2.7375686016834879 72 887 25 2005
30361 0.48670639193810228 0.10374610384004494 -3.4621391042942649 72 54 42 0.52828910815876817 26 2048 25 1979 24 1764 23 1690
30357 -0.005173877092088163 0.10970543093202061 -3.3997363046589379 184 146 99 0.93976798172555132 26 2037 25 1968 24 1756 23 1304 22 1288 20 421 37 393 21 1316 19 1272 17 335 16 316 15 349
30356 0.02232640047571112 0.10929014228985093 -3.3664945547695031 151 123 83 0.53187962884451123 26 2032 25 1964 24 1978 23 1679
30349 0.86083121479166291 0.12077572401247154 -3.0081193269255873 137 122 35 0.71287953088401679 26 2017 25 1935 24 1718 23 1648 21 1269
30347 0.88818765594401972 0.12253615190764276 -2.9623057784207392 83 79 8 0.66887964509326914 26 2013 25 1930 24 1953 23 1900 22 1876 21 1710 20 1683 37 1716 19 1926 17 1567 16 1605 14 1174 13 279 12 278 11 268 10 281
30345 -0.16364749058218581 0.12216349111012545 -2.8051451824890545 171 130 92 1.7864217214374478 37 321 25 1927 19 1240 16 273 15 301
30338 0.3588918013706493 0.10501512856474776 -3.5130105376269891 183 139 90 0.41405760135710029 26 1939 25 1788 24 1370 23 1339 20 441 22 504 21 463
30337 0.15351333459791819 0.10758262817318716 -3.520394950033515 215 172 121 0.43380055938085993 26 1936 25 1787 24 1374 23 1341 22 513
30334 0.03607262654218072 0.10800958505200231 -3.4639320928012163 144 113 75 1.1025274027085732 26 1733 25 1773 24 1762 23 1317 22 1295 21 440
30331 0.66298653995005619 0.11755482373356348 -3.1634364820292791 181 133 94 1.1900286093951482 27 2052 25 1742 24 1287
30329 -0.13581868067121949 0.10961029579921383 -3.1706234491067931 34 24 0 0.41574025916322049 26 1897 25 1731 24 1270 23 415 22 388
30326 0.98327055165786958 0.12730873013080468 -2.8118445212329339 133 123 40 0.8103089170546014 26 1652 25 1707 24 1701 23 1637 22 1654 21 1705 20 1250 37 323 17 292
30321 -0.070759964367068662 0.11860453261493281 -2.3963677238974879 193 147 98 0.51023074198780538 37 296 25 1687 20 1230 24 1688 22 1201 19 294 17 270 16 260
30320 -0.64245559264608332 0.096039980275389972 -2.1049294037957966 13 14 6 0.91456963287831095 26 1853 27 2002 37 259 25 1668 23 1877 21 1225 19 1206 17 244 15 250
30305 0.57098271503620679 0.11038933703599797 -3.4376374777093801 213 161 111 0.14199384790657585 26 1741 25 1414 24 627
30298 0.81809465612990784 0.11462589880591219 -3.3054883581957042 68 62 13 0.50598816969101479 26 1708 25 1361 24 546 23 468
30297 0.81689027165847627 0.11397787890877101 -3.3083477265798691 68 62 13 0.24058594201706948 26 1707 25 1360 24 547
30296 0.49002379511043287 0.10955655107654258 -3.3092967076220932 218 168 115 0.25778360236976716 26 1704 25 1356 23 461
30286 0.52444006385569331 0.11374717491319972 -3.0415417480426283 211 161 112 0.57737620039301041 26 1288 27 1811 25 1290
30283 0.93616690393293911 0.12640961358223896 -2.7731091799013279 81 85 8 0.45645435447019284 26 1647 25 1264 24 1234 23 354 22 343
30282 0.93616690393293911 0.12640961358223896 -2.7731091799013279 81 85 8 0.45645435447019284 26 1648 25 1263 24 1235 23 355 22 342
30270 -5.1326348865756506 -0.85823001107751251 3.753481658600601 247 253 239 0.77485265282770122 20 1080 26 989 37 1098 25 1001 24 1026 23 1030 22 1019 21 1056 19 1077 17 992 16 1020 15 23 14 26 13 1001 26 1515 12 992 11 24 10 27 9 22 8 26 7 20 4 20 3 25
30263 0.21933824896041368 0.10822839877105989 -3.4530119132695782 203 158 119 0.20265701432205585 26 1419 25 667 24 626
30262 0.37283624232150997 0.10656028639492436 -3.3876436524389324 192 145 101 0.54484262558513874 26 747 25 628 24 586
30198 0.18513579442730976 0.10753550936111361 -3.3379054363397245 205 154 106 1.1585277432187535 27 2327 26 2172 25 2158 24 2187
30197 0.1645395676155211 0.10787756038324321 -3.3222739907362722 181 140 108 1.6388729243229256 27 2362 26 2171 25 2157 24 2184 22 2033 20 1921 21 1948 13 297
30195 4.064193030274506 0.15781798126752353 7.0687617199023736 117 100 31 1.9507199051776323 20 2183 39 2556 40 2491 38 2446 23 2184 24 2227 25 2192 22 2171 19 2217 21 2219
30191 -0.041360533686358468 0.13309083912263564 -3.2236973979116397 0 0 0 1.1892586401050156 27 2326 37 1728
30182 0.19296706395698121 0.11052535319784469 -3.1952367343995598 206 157 116 1.4643757060416007 27 2266 26 2025 25 1946 24 1963 37 364 23 1660 22 1253 20 377
30131 0.49281154423624002 0.11041614149534468 -3.3641249436764826 207 174 114 0.62762635864674188 27 1887 26 1386 25 621 24 582
30130 0.71775120536336823 0.11350947503257106 -3.3536903827886362 183 148 102 0.94290759497781529 27 1879 26 1383 25 625
30124 0.14043446275071472 0.10934864468942507 -3.3508059695584631 192 130 91 0.22609429205900575 27 1865 26 1363 25 598
30123 0.49745052823798153 0.10739859364916089 -3.301721520456284 187 147 108 0.91305070576253922 27 2063 26 1347 25 571 24 536
30122 0.45159229383610239 0.10684713386089879 -3.2570135107960931 201 156 110 0.40202330834931699 27 1846 28 2050 26 1337 25 1336 24 519
30114 -0.14055936348623643 0.10984082892796868 -3.1303515503229495 37 34 8 0.31763623659547952 27 1403 26 1291 25 465 24 458
30113 -0.1399890820826056 0.11009284539306399 -3.0923332407261332 52 44 7 0.28335293776588749 27 1810 26 1287 25 448
30112 0.73799506761563194 0.12248962859864218 -2.9581588014702085 129 85 56 0.43118649490424021 27 1390 26 1278 25 437 24 429 23 384
30111 0.67946128648393467 0.11894307169248074 -2.9396512854678778 166 132 87 0.29874313029244609 27 1377 26 1273 25 428 24 416
30102 -0.12165578235852266 0.13732328591484455 -1.3868789093051292 209 158 111 0.78453388370284183 27 1253 37 254 26 1165 25 1190 24 1184 22 271 21 255 19 250 16 232 15 244 14 242 13 240
30100 -3.2782313465482114 0.30808983715266325 2.4054641842828639 61 73 5 0.34190638108594101 26 1145 25 1164 24 239 21 1202 20 246 19 235 37 231 17 221 16 218 15 226 14 224 13 224
30099 -2.6785268565976685 0.24868036320817644 2.2910505419440788 86 100 15 0.53690893199698664 20 225 26 1134 21 217
30097 1.8030999498724829 0.17450924129070972 5.1621461015590171 0 0 0 0.28427387893441003 18 1126 69 2166
30093 0.21010102954444662 0.10862120712729066 -3.3895380842702276 152 114 84 0.10824911156843743 27 1548 26 741 25 630
30090 0.20893850356794788 0.10838532963524379 -3.3617247009173958 124 98 68 0.61290718293122448 27 1524 26 705 25 610
30088 0.51150855698716358 0.11105170743048424 -3.319330530869272 195 140 95 0.085603164035236753 27 1512 26 689 25 595
30087 0.054621343297754969 0.10748199624996665 -3.3463808129077259 177 135 96 0.68700087031742552 27 1496 26 675 25 582
30086 0.3171397564293249 0.1055816687456485 -3.2831055333786114 214 170 109 0.4415647460194756 27 1484 26 637
30082 0.053220660623872269 0.11162380804524275 -3.204694574667768 185 157 110 0.92926179137237896 27 739 26 585 25 518
30081 0.035587258195733627 0.11166150756475542 -3.198434796785611 94 68 55 0.13592704351395218 27 1445 26 574
30080 -0.09310108136695118 0.11154109137232722 -3.183866731906726 167 128 94 0.8771531936612994 27 1433 26 555 25 494 24 494
30079 0.73036598856272039 0.11958024576932064 -3.1014624194784068 210 162 113 0.35538236641180815 27 1431 26 551 25 490 24 484
30078 0.61096619236985972 0.11436431314864325 -3.0866779902100805 113 56 26 0.66347079939951448 28 1853 26 526 25 472
30076 0.11732695141650704 0.10947127881327508 -3.1123024980394289 239 181 131 0.90436349509106029 27 626 26 518 25 467 24 454
30075 0.12121601346972789 0.10745956474926872 -3.1222432146917489 239 181 131 0.57143161267937947 27 627 26 517 25 466
30073 -0.11324312739780906 0.11343786591119381 -3.0866689438957282 151 120 91 0.027960135779322281 27 599 26 501
30069 0.50101043738753082 0.11483322474114213 -2.9513642539495324 234 188 120 0.55503110537488221 27 1376 28 1409 26 467 25 425
30068 -0.18343142733996776 0.1117841955927301 -2.7813506365098264 111 108 39 0.16114558055920319 27 447 26 408
30067 -0.025031240327609311 0.11492713858289781 -2.619023363098409 219 168 121 0.36470219358223632 28 1348 26 381 27 407
30063 0.040099491759450857 0.12753204602851101 -1.8992483094824115 241 184 137 1.4502947401298263 27 1274 28 342 29 1288 30 1782 26 301 25 296 31 352 29 330
30062 -2.1323927725224947 0.19121079691813919 0.69434040386604745 0 0 0 0.8022310021248471 18 1179 40 1260
30061 -2.474447351550324 0.3004860995560113 2.3658072668388699 100 111 20 1.1034196089493211 43 1304 26 232 42 1289 25 236 24 229
30059 1.1908051258785128 0.21791661388390415 2.9191537832781695 113 127 27 0.54727915609550559 18 1150 36 1220 26 187 35 1130
30058 4.1658864316930595 0.33434994902767423 10.350451356771423 100 104 27 1.0912304828007198 91 201 26 160 25 167
30057 2.7369563369616885 0.25193537648809428 7.3094697952203997 97 104 31 1.1247314880460069 37 154 70 2124 17 156
30043 0.15902663714805093 0.11799679281102761 -3.2175012530571241 202 149 107 1.7533160440917224 28 2341 27 2385 26 2195 23 2195 22 2136 21 2163 19 2063 16 1973
30037 25.856179646239514 -14.429784126021685 48.008541273481185 115 165 218 2.2123466427188285 35 2219 36 2375 101 3455 102 3700 103 3622 34 2277 26 2180 25 2214 17 2113 16 2125
30036 0.64276755981574529 0.11274401023067716 -3.3327136379152007 136 95 67 1.1488365877983455 37 1298 27 2329 20 1297 24 1981 22 1687 19 1263 17 1171
30018 0.50208661137427035 0.11143082186792486 -3.0912090202194213 215 162 105 1.6694543935617634 29 2337 27 2172 26 1896
30016 -0.15642196015094667 0.11274752545059478 -3.0042856149003887 45 50 5 0.37835304084368621 28 2220 27 2159 26 1885
30011 0.49193070525280758 0.10925043670279326 -3.2849776144611758 72 51 42 0.43015010082538763 28 2170 27 2062 26 1912 25 1754 24 1308 23 1281 20 392 22 1272 21 397
30009 0.41589958699383595 0.10866155722697096 -3.2530918043081147 184 136 98 0.40429034869218516 28 2165 27 2058 25 1337 24 522
30008 0.18830368478994106 0.11097812070005747 -3.2244308846850838 206 151 94 0.76313040369285112 28 2162 27 2054 26 1695 25 1744 24 1294 21 378
30007 0.063553292029764258 0.11054414178510173 -3.2189975954563237 187 145 95 1.0253126873112577 28 2160 27 2051 24 1290 25 1741
29955 -0.13188456258811151 0.11173885081722666 -3.0500774790321685 116 93 68 0.33148810021862735 28 1422 27 1387 26 486
29952 -0.17368292658880502 0.11035787139107536 -2.91010717962298 93 106 14 0.69557916283968224 28 1805 27 1352 26 1257 25 407 24 394 23 365
29945 0.73402446888080286 0.13212041317974182 -2.1073810963020856 132 118 27 0.43054886155457156 28 1295 29 1799 27 1284 25 311
29944 -0.71548619739324648 0.1233598186942968 -2.0672562803151719 42 49 7 0.57823374476232103 28 1286 29 1294 27 1280
29942 -0.72318758180579223 0.11762481398868692 -2.1079120783789298 54 50 11 0.26110988252269213 28 1284 29 1291 27 1277
29940 -0.07898894739650221 0.10055416655873628 -1.3786027836151045 194 141 96 1.4514957118802636 20 238 32 1869 37 226 19 227 17 213 16 211
29939 -4.7239457713967141 -0.40964292856164919 6.723486612913228 59 59 28 0.36187122766878371 20 1106 31 1595 37 1124 27 1107 26 1025 25 1037 24 1059 23 1065 22 1054 21 1093 19 1104
29932 0.33006171111497512 0.10919314902423695 -3.2407099051364234 153 100 69 0.26841947821314277 28 910 27 784 26 613
29929 0.38632647079742921 0.11030157736325154 -3.1642288859084857 191 145 99 0.24588139916268062 28 1501 27 721 26 565
29924 -0.15142825018123324 0.105828940777226 -3.0203923764085201 105 105 30 0.39513274399073067 28 606 27 539 26 460
29923 0.088437084675617644 0.1143540509226547 -2.8029443739847539 241 179 130 0.48747465325690464 29 1409 27 473
29922 -0.16619752472468033 0.11760528011669268 -2.7839476845463555 141 112 77 0.2569479161133319 28 1373 27 456 26 419
29920 -0.030294533248036958 0.1181265552556499 -2.6355402769384759 226 174 127 0.44809573810573194 28 472 29 1367 27 415
29918 1.36707042442895 0.16538824927208087 -1.9934700349053354 78 79 9 0.29379263464682071 28 397 27 353 26 345
29917 0.43758996234084679 0.12506955748394369 -2.2405688560516328 193 147 105 0.30433988829946595 28 392 29 386 30 1286 27 351
29916 0.43758996234084679 0.12506955748394369 -2.2405688560516328 193 147 105 0.30433988829946595 28 391 29 385 30 1287 27 350
29912 -0.63621367506385784 0.12269764219395514 -2.0250193593431138 119 113 29 0.62711898152705758 28 1283 29 1290 27 318
29910 0.80743056831571547 0.1394236882709104 -1.6303640319380206 159 142 44 1.3224834063817106 28 322 30 1244 27 293 29 1278
29909 -0.5098612707558563 0.13116259883176398 -1.6229053296704838 130 138 26 0.24474509641119066 28 311 29 300 27 290 26 286 25 275 24 274
29908 0.19701798183563188 0.11865726283282206 -1.7693600144252919 200 151 110 0.88166237375192025 29 1272 30 1237 31 1255 32 1149 33 1721 27 288 33 1257 26 283 25 272
29845 0.72901473244451365 0.12131334733083318 -3.027279504007077 181 135 89 1.0465088648629814 29 2197 28 2025 27 1814 25 456
29843 -0.047500535367737184 0.1118406805040591 -3.027224742428785 200 160 110 0.12440879470015127 29 2073 28 2022 27 2040
29841 0.65689629682649364 0.12115633428700162 -2.8448154592344412 201 143 97 0.52532142219568156 29 2064 28 2014 27 1798 26 1658 24 1243
29839 -0.16240172836139444 0.11335961181229802 -2.9121955658682808 43 35 12 0.3443473652572972 29 2182 28 2007 27 1792 26 1655 25 1708 24 1704 23 1233 22 1219 37 328 20 1255 21 1256 19 319 17 293
29838 -0.17381019036203149 0.1150761113914073 -2.8309831741748326 25 31 0 0.16236628322001098 29 2055 28 2006 27 1783 26 1646
29837 0.28169067957231703 0.11304731315694309 -2.7994740696540696 223 168 114 1.2904027031363572 29 2056 30 2224 28 2005 27 1781 23 348
29835 0.27413929639961976 0.11338709743260435 -2.7347819403349898 213 166 117 0.76796132258070571 29 2052 30 2221 28 1999 27 1776 26 1637 23 1225 21 1250
29834 0.76016223991341025 0.12420473654462294 -2.6498557873104436 103 107 22 0.62831097715027739 29 2051 28 1995 27 1332
29833 -0.68861996893258481 0.09550514738800997 -2.113618640447517 67 54 9 0.4011310542858873 20 1214 30 2058 37 1240 28 1984 25 1671 24 1669 23 1616 19 1208 17 1122 16 1146 15 1158 12 241 11 239 10 253 9 229 8 211 7 231
29832 4.3077432483245239 0.28122754124245386 5.9626372879700744 95 108 21 1.3888642381876999 39 2321 28 1952
29828 0.34487695653160988 0.10906223443265652 -3.2205631528001848 228 147 100 0.4255726179818517 29 2110 28 1878 27 1475 26 1331 25 532 24 507
29824 0.43668595309774944 0.11196520345630051 -3.1461113238025185 228 180 129 0.42641454064977014 29 2097 28 1862 27 1437 26 559
29823 0.46244285141760821 0.11358027906720414 -3.1302086204224073 223 172 123 0.7755030179793434 29 2095 28 1861 27 1435 26 553
29822 0.38876360020934214 0.10971940411391246 -3.1478909083276818 214 163 105 0.93398278350976394 29 2208 28 1860 27 1434 26 550
29821 0.26156347575859173 0.10961955932328407 -3.1434831891735575 184 154 99 0.51657129992156769 29 2093 28 1859 27 1428 26 543
29820 0.7273204900807958 0.12099764796131608 -3.0810358144151513 202 162 102 0.49397792407405305 29 2090 28 1857 27 1424 26 536 25 486
29817 -0.0093112877107354025 0.11334471796273958 -3.0514208307438873 137 107 70 0.37474042722203793 29 2077 28 1839 27 1395 26 493 25 444
29810 0.97382334520368863 0.13826666662626302 -2.3885392774515761 80 79 15 0.77747565999067025 29 2044 28 1784 27 1770 26 1221 25 1238
29807 0.66069938201733658 0.13069795236276213 -1.8587098367345849 129 121 20 0.27025673562775604 30 2061 31 2072 28 1762
29801 -5.2374316272553285 -0.70483116344857244 4.086423785645434 39 39 10 0.80262812135186801 29 1964 37 49 28 1656 27 1647 26 1521 21 1064 19 1083 17 40
29799 0.18514146151407845 0.11162266726425264 -3.2324096390874923 152 115 82 0.11803240082772788 29 1933 28 1530 27 774
29793 0.062787598927372637 0.11105267567320244 -3.1921680969877646 184 149 98 0.39746446623269865 29 1913 28 1499 27 727
29791 0.27859987934904401 0.1081394842860698 -3.1549797525658017 168 122 89 1.1204865673709248 29 1908 28 1486 27 694
29788 0.47765853582149248 0.11300611539737286 -3.1258760719714291 231 187 128 0.050380094176727758 29 1906 28 1481 27 695
29787 0.36023733775906797 0.10976435394125054 -3.1337500013775403 223 171 120 0.31325482496155543 29 1901 28 1478 27 670
29775 0.73136474690389863 0.12029183628999211 -3.0432925447290482 220 168 128 0.32722659134004789 29 1519 28 1439 27 615
29774 0.37555663035549813 0.10941192775119798 -3.0669098752465285 191 141 100 0.42455852172897335 29 1871 28 1434 27 603
29773 0.60336059509648055 0.11810118334903386 -2.947305786174812 171 117 89 0.45551385207101192 29 1860 28 1414 27 1381 26 472 25 429
29755 0.32944612191672884 0.11097849077145314 -3.2104653501810398 255 204 104 0.59929678283949561 29 1648 28 887 27 766
29753 0.32310945763849092 0.10942849522247286 -3.1432739626952348 255 227 104 0.48354412083687998 29 855 28 790 27 688
29751 0.086038403954890652 0.11322962621670606 -3.1513944309550115 115 74 47 0.4176885434064741 29 1576 28 786 27 701
29750 0.45360031565390002 0.11143186125798038 -3.1254938936289758 112 70 47 0.20600840956245858 29 1579 28 781 27 681
29745 0.3295614096059668 0.11295999133985356 -3.1135750770977517 253 220 106 0.27415169361567315 30 1943 28 758
29744 0.44352098601826062 0.11318107617612749 -3.0966219004638185 234 166 136 0.31017332232897521 30 1933 28 744
29734 -0.17405439181745999 0.11043141569479677 -2.8464848941122565 87 94 17 0.11326620890777905 29 1404 28 532 27 472
29731 0.84642201028109088 0.12633409541095414 -2.6492463018259387 84 76 8 0.62690489628893686 29 1387 28 507 27 437
29729 0.290860007730253 0.11630659393392485 -2.6867422992268217 243 186 133 0.40771264352945841 29 494 30 1365 28 496 27 430
29727 0.44453964569973353 0.12101783974666276 -2.6238957459555099 103 71 58 0.12215785315659 29 479 30 1354 28 484 27 421
29726 0.15105209926823709 0.11737672447821755 -2.6461897608544818 192 139 107 0.32622143748203564 30 1821 28 478 27 419
29722 -0.8235535308402524 0.30073965289732207 -0.33704792175920156 190 146 100 0.23205321293928588 45 1438 28 356
29717 1.488535155119084 0.18034105550206356 -0.80997933214148099 118 109 30 1.1412338793041255 29 269 30 262 28 287 27 261 26 265 25 259 24 258
29716 0.5458388155329551 0.26628727106008138 0.479686305657051 0 0 0 0.77349272266912461 32 1124 56 2364
29715 0.75609632387558334 0.16330971090475527 0.048419778295878152 149 140 37 0.19105748575207845 31 227 33 1203 28 254
29713 3.5649500287282767 0.22849271218816136 6.0176969788531087 99 100 20 0.39835591217641275 34 173 28 188 27 165 26 164
29706 0.35856852569018832 0.11305333052416164 -2.6978969289472166 196 149 105 2.0281461372498244 30 2423 29 2400 28 2338 27 2382 26 2192 24 2233 21 2154 19 2054
29700 20.074528349349194 -6.3588979970379533 39.083681371602147 217 238 240 1.2440080907767164 135 3007 5 1490 20 1571 37 1621 32 1484 34 1601 35 1865 36 1647 18 1956 33 1591 41 1919 39 1761 43 1970 40 1677 42 2057 45 1962 46 2005 48 1711 30 1658 31 1569 53 1989 58 1696 59 1886 60 1705 70 1756 75 1937 72 908 94 3014 91 1601 96 1380 97 3122 47 1870 50 1628 51 2126 52 1781 54 1995 55 1740 57 2036 61 2064 63 2059 64 2004 79 1712 100 3405 101 2931 103 3106 102 3429 104 3198 111 3006 112 3038 114 2972 116 2744 119 2833 106 3262 107 2808 108 3094 109 3061 110 2957 113 2793 115 2938 117 2971 120 2944 122 2740 123 2936 124 2920 126 2865 127 2837 129 2944 131 2820 132 2958 133 2919 134 2726 29 1689 28 1642 27 1637 26 1508 25 1562 24 1564 23 1540 22 1554 21 1866 19 1566 17 1485 16 1502 15 1549 14 1507 13 1467 12 1513 11 1436 10 1503 9 1508 8 1464 7 1547 6 1560 4 1536 3 1527 2 4502 1 1472
29699 11.858153754539288 -5.2266641989040465 35.457166257414443 0 0 0 1.8315120744121112 30 2445 89 2079 70 2537 71 2415
29695 0.46042005326970115 0.24814666751736206 -1.7470446899323206 227 182 125 1.6581962901396448 31 2302 32 2253 29 2417 28 2361 26 2251
29684 0.54827310207383295 0.11523441532559456 -2.8953304277041814 196 152 103 1.6842212271888599 29 2367 28 2309 27 2319 26 2110 25 2146 24 2076 24 2175 20 1681 23 1896 21 1934 19 1661
29683 -0.65249282857873625 0.10260594144998295 -2.0954452833938526 11 12 6 0.81080469171753278 20 2131 37 2196 29 2364 28 2301 27 2354 26 2166 24 2232 23 2134 22 2124 21 2152 17 1952 16 1965 15 1983 14 1941 13 1785 12 1838 11 1750 10 1845 9 1856 5 1567 8 1798 6 1641 4 1604 2 4569 1 1538
29679 0.72039765934729549 0.12134885881484343 -3.0002648144346997 176 135 83 1.6653946264845096 30 2388 29 2335 28 2223 27 2168 26 1890 25 1933 24 1719 23 1647 22 1237
29622 0.75856686046439226 0.12098880118984345 -2.9244402632427406 119 93 63 1.2616972105373208 30 2109 29 1857 28 1829 27 1375 26 468 25 427 24 417
29620 0.46808606736027819 0.11773364011925622 -2.8480301273458162 86 70 49 0.62174397795679814 30 2099 29 1848 32 2136 28 1817 27 1362 26 1261 25 1270 24 390 23 362
29619 0.46808606736027819 0.11773364011925622 -2.8480301273458162 86 70 49 0.62174397795679814 30 2098 29 1847 32 2135 28 1816 27 1361 26 1260 25 1269 24 389 23 361
29613 -0.19726340361846156 0.11928017729065801 -2.6291238119072582 41 31 6 0.25975070881706364 31 2085 29 1821 28 1789 27 413 26 385 25 360 24 344
29609 -0.6336417059531626 0.10519654202766029 -2.0940535227528332 91 105 17 1.6250742172092165 20 1664 30 2059 29 1792 37 1706 28 1761 27 2004 26 1855 25 1677 24 1196 37 266 23 1620 22 1184 21 1923 19 1210 16 239 14 1162 13 1111 12 243 11 245 10 259 9 237 8 215 6 222 4 230
